ply
format ascii 1.0
element vertex 328
property float x
property float y
property float z
end_header
0.17338607 -1.1241276 2.1516404
0.17338607 -1.1241276 2.1516404
0.17338607 -1.1241276 2.1516404
0.17338607 -1.1241276 2.1516404
0.17338607 -1.1241276 2.1516404
0.17338607 -1.1241276 2.1516404
0.17338607 -1.1241276 2.1516404
0.17338607 -1.1241276 2.1516404
0.17338607 -1.1241276 2.1516404
0.17338607 -1.1241276 2.1516404
0.17338607 -1.1241276 2.1516404
0.17338607 -1.1241276 2.1516404
0.17338607 -1.1241276 2.1516404
0.17338607 -1.1241276 2.1516404
0.17338607 -1.1241276 2.1516404
0.17338607 -1.1241276 2.1516404
0.17338607 -1.1241276 2.1516404
0.17338607 -1.1241276 2.1516404
0.17338607 -1.1241276 2.1516404
0.17338607 -1.1241276 2.1516404
0.17338607 -1.1241276 2.1516404
0.17338607 -1.1241276 2.1516404
0.17338607 -1.1241276 2.1516404
0.17338607 -1.1241276 2.1516404
0.17338607 -1.1241276 2.1516404
0.17338607 -1.1241276 2.1516404
0.17338607 -1.1241276 2.1516404
0.17338607 -1.1241276 2.1516404
0.17338607 -1.1241276 2.1516404
0.17338607 -1.1241276 2.1516404
0.17338607 -1.1241276 2.1516404
0.17338607 -1.1241276 2.1516404
0.17338607 -1.1241276 2.1516404
0.17338607 -1.1241276 2.1516404
0.17338607 -1.1241276 2.1516404
0.17338607 -1.1241276 2.1516404
0.17338607 -1.1241276 2.1516404
0.17338607 -1.1241276 2.1516404
0.17338607 -1.1241276 2.1516404
0.17338607 -1.1241276 2.1516404
0.17338607 -1.1241276 2.1516404
0.17338607 -1.1241276 2.1516404
0.17338607 -1.1241276 2.1516404
0.17338607 -1.1241276 2.1516404
0.17338607 -1.1241276 2.1516404
0.17338607 -1.1241276 2.1516404
0.17338607 -1.1241276 2.1516404
0.17338607 -1.1241276 2.1516404
0.17338607 -1.1241276 2.1516404
0.17338607 -1.1241276 2.1516404
0.47176817 -1.1333222 2.1297483
0.73723817 -1.036564 2.4346676
0.8129586 0.056831636 1.4114538
0.40382737 -0.99687225 1.9832894
0.8996302 -0.937101 2.3426137
0.6846814 -0.84097034 1.8102337
0.29288793 -1.0223461 1.9515808
0.53394943 -0.9449511 1.8321955
-0.15496406 -0.98858184 2.3622854
0.62085605 -0.45763594 2.999972
0.77374077 -1.008543 2.336667
0.32346588 -1.102363 2.555812
0.05570521 -1.0858133 1.5060089
0.3451497 -0.8723906 1.3861887
0.5450909 -1.1932956 2.2254844
0.2766924 -1.0532571 1.6473899
0.021294013 -0.33975273 3.1741097
1.2190379 -0.34693885 2.0495818
1.4467136 1.2327093 2.77087
1.7302632 0.62092185 2.2764463
1.3755351 0.2151651 1.6585616
1.4185896 0.49832007 1.9845585
0.73540235 -0.9717674 1.670285
-0.36660063 -0.28746286 3.1086884
0.55279 0.20254745 3.7336822
1.121632 -0.4724021 1.9315165
0.7391398 -0.77599156 1.6688353
1.0052149 0.12145801 1.6192974
0.32757258 -0.36534184 3.2685354
1.1203055 0.68438333 1.5579997
1.0029895 -0.3096934 2.821942
0.6781707 -0.6172197 2.769645
0.97323984 -0.50202936 2.633792
0.592343 0.7096457 1.4767787
0.7912669 -0.6148772 2.660562
0.2930895 0.030246735 1.2399105
0.21115738 -0.47039846 3.2629528
0.3205406 -0.5042279 3.4418633
0.5208716 -0.66998535 1.7440709
0.45637342 -1.192474 2.7060158
0.28316328 0.7690912 1.5272334
1.0297835 -0.51146966 2.0379505
0.32043403 0.83823436 1.6770201
0.53328675 0.73430717 1.7538507
0.54421836 0.72289526 1.7855121
0.16060825 -0.422704 1.1305243
1.0730184 0.008182326 2.784517
0.69190997 0.58276176 1.7448063
0.17726333 0.65414786 1.4791079
-1.3515216 0.8756175 1.765792
-0.42193043 0.29833648 3.25792
0.17503539 0.52202886 1.4650441
0.67153794 -0.19607505 3.558251
0.84090704 -0.20724505 3.1261542
1.1649461 0.5105766 2.7597046
-0.7196285 0.57876307 3.4532733
-0.1454879 0.1973876 0.8052539
1.2075548 0.59726304 2.3363903
1.2725905 0.4095228 2.6382155
1.104894 0.66010284 2.4021316
0.15218528 0.009460199 3.3752756
-1.5817286 0.7918865 1.9410911
0.8451931 0.83288515 2.6280715
0.0629078 -0.4692991 0.7478206
0.5011233 0.96017677 1.9590081
-0.5878742 0.801349 2.8763764
0.038347285 -0.44666487 1.1265047
0.40260008 0.8260402 2.9718993
-1.5624431 0.8869854 2.438347
-1.2309097 0.76238656 2.1475928
-1.1029172 0.7531421 2.1825812
-0.5440046 -0.15216899 1.2289256
2.137958 0.3379476 2.0845244
1.3385453 0.05246355 3.2509246
-1.4837484 0.84833634 2.2883403
1.1757301 0.42165238 1.9670554
-0.48432267 -0.24741313 3.6025853
0.17594065 -0.5638055 0.6106261
0.19283602 1.0264343 1.906494
-0.9630647 0.5153368 1.7000649
-0.51439935 0.88262933 2.2819307
0.16991848 -0.3068762 1.3354712
0.8782045 0.0676838 1.2004902
-0.95713574 0.6063266 2.293509
0.46401224 -0.5531115 0.62539005
-0.19390734 0.9858191 2.2882166
0.6872631 0.786323 2.0677443
0.67358464 0.83953357 1.9162556
0.28609216 1.0035466 1.9030837
-0.48804924 0.013300845 3.1411228
0.4459341 0.42661273 1.3856454
0.70414305 0.77055347 1.7723099
0.7106036 0.110708535 3.4825726
-0.744865 0.5863712 1.9735858
1.0703973 0.3938708 3.5322394
0.5463048 1.0179935 2.234436
-1.0713072 0.6737256 1.9115951
-0.3759458 -0.92176294 3.8203971
-0.2482663 -0.49716726 0.97210693
-0.76413083 -1.2854338 2.3130794
-0.23368876 0.83341056 2.7305455
-0.9411826 0.08796158 2.5680423
0.3467863 -0.5846261 3.4176614
1.8092904 0.29002368 2.665287
-0.38588312 0.6475545 2.777007
-0.008982047 0.61937374 3.0335631
-0.57004446 -0.13694443 2.941887
-0.6382049 -0.8565853 2.6096191
-0.2124879 0.6082354 3.0545373
-0.16184822 1.0450459 2.543738
-0.490738 0.31429586 3.1178741
0.76410717 0.4813315 3.0561182
-0.23004936 0.89939576 1.8383104
-0.032899927 1.15585 2.4967995
0.22437544 -0.58070874 3.9545774
-0.20256847 -0.4910884 1.1106716
0.16009448 -0.61890084 3.939109
-1.1904492 0.44168583 1.6989163
-0.034162886 0.8078489 2.886074
-0.37492725 0.78889644 2.7233515
-0.63812095 0.34831706 3.002931
-1.0171096 0.03231004 2.2325046
0.39432922 -0.36646912 3.4638178
-0.99167866 -0.32926714 2.3122652
-0.11390007 -1.0577389 1.5335101
0.24295568 -1.3524712 2.9735312
-0.85266155 0.4651273 2.619997
0.3311665 -0.6367568 3.350782
-0.27711374 -0.53442496 0.97460395
-0.9294986 0.24478403 2.6415417
-0.5070028 -0.4272217 2.6761503
-0.98132676 0.0763433 2.4904246
-0.67313755 0.5411857 2.8456578
-0.8710131 0.40988886 2.6047814
-0.33089775 -0.09071593 1.5685093
-0.58048177 0.9034522 2.3868403
0.7189571 -0.20126478 3.059414
-0.9258875 -0.542266 2.3263624
0.54423356 -1.0539905 2.8484926
-0.9636932 0.06857911 2.15343
-0.6887888 0.5154832 2.7222202
-0.5994634 -0.51955307 2.5018516
0.438983 -1.0608094 1.9392477
-0.06758312 -0.24290343 3.1224554
-1.0729331 0.55386186 2.2377124
-0.50831646 0.29082397 2.9855103
0.7169498 -0.39907283 3.48708
-0.52605194 -0.9970609 2.5773132
-0.033776067 -1.0588794 2.4176211
-0.8729117 -0.2870946 2.4293118
-0.86445546 -0.15689571 2.6134508
0.23759812 -1.1574336 2.515308
-0.56614596 -0.047499035 3.064277
-0.3643324 -1.0277654 2.1406028
3.9840396E-4 -0.32559982 3.041723
0.52646446 -0.8071436 1.8605067
-0.37809604 -1.0302871 2.3307033
-0.44787955 -0.86168426 2.7173476
-0.27457935 -0.31129548 3.1024096
0.054776948 -0.567756 2.939581
0.28447068 -1.1855707 2.621151
0.090244085 -0.6602468 2.8750932
-0.41565335 -1.3042209 2.8025918
0.38351506 -1.1935636 2.317288
0.17159672 -0.7475349 2.8516243
0.12062661 -0.91272813 2.7352803
-0.28563756 -1.2269785 2.6093018
-0.44341815 -1.2339518 2.3785932
-0.244984 -1.1871387 2.100919
-0.43281162 -1.2789946 2.7440767
-0.4650386 -1.0538936 2.5765321
0.32442155 -1.2137458 2.5417671
0.8537486 -1.0979767 2.2131133
0.12848863 -1.1922525 2.8056364
0.75898504 -1.087297 1.978487
0.51164377 -1.1768223 2.478558
-0.49307528 -1.0227959 2.0453336
0.13434392 -1.1270775 2.254602
1.0616904 -1.1671162 2.4717236
-0.3068949 -1.0332606 2.127621
0.28292394 -1.1044407 2.4632177
0.42631054 -1.1193883 2.3802187
-0.46327758 -0.98160595 2.2143188
-0.1963199 -1.0249648 1.7560861
-0.23576634 -1.1674063 2.548727
1.2317699 0.20705257 1.6627282
-0.14672504 -0.9918792 1.6181237
0.97127044 -0.9839976 2.1786733
1.345052 0.10816232 1.7412221
1.9095172 0.3851826 2.3443704
1.6021587 0.32692528 2.034649
0.9543051 -0.95492905 2.0745475
1.0996006 -0.18573387 2.0156615
0.8683125 -0.57581115 1.8715109
1.5559283 0.51743716 2.038265
0.969631 0.67540073 3.1215308
1.0269837 -0.47837362 1.7899503
1.016181 0.9057982 3.411215
1.3216312 0.33729962 2.239531
0.8766475 0.4059614 3.9562585
0.575696 -0.5683878 1.4330972
0.32267398 -0.2608763 3.7023327
1.1790103 -0.92979103 2.01126
1.0989206 -1.0548896 2.1123219
1.8490992 0.8748839 3.0276964
1.2053845 -0.65786743 2.0174606
0.6482829 0.27993312 1.5130495
1.3327378 -0.25732246 2.4970126
0.91610515 -0.11205818 3.0164535
0.53754586 -0.61397153 1.6705147
0.44844213 -0.24087022 3.5469236
0.3947595 -0.5892543 1.417965
0.35615343 -0.7178468 1.5368369
1.1421 0.4661907 2.7523828
0.37961933 0.21445028 3.1642122
1.1090331 0.60667366 2.4570587
0.45033652 -0.679377 1.284685
1.0722653 0.63215697 2.6799965
1.910887 0.56307054 2.4533536
0.35696295 -0.5186547 1.042369
-0.11298573 0.2868714 3.4465914
1.5081261 -0.43830094 1.6386203
0.4434359 0.9584609 2.141345
1.0007119 0.6942851 2.6439564
1.0131457 0.7742983 2.519085
1.6538724 -0.41865522 1.7096467
0.4233037 0.9397359 2.8407097
1.0908153 -0.3424601 1.4752878
0.5537453 0.90529484 2.669857
-1.2583703 0.8000117 1.838701
-0.1548284 0.67376906 3.0669174
-0.7432886 0.6585649 1.8400755
-0.65045744 0.029381301 1.0455942
-1.5434391 0.7950727 2.6569328
-0.8742547 0.57623315 1.8384368
0.008618826 1.0622698 2.506636
0.4655918 0.9188623 1.8451216
-1.427735 0.7648885 2.6388385
-0.3122012 0.8292795 1.8406377
0.30932787 0.89218235 1.6269631
-0.84088516 0.6551849 2.1715505
0.4923505 -0.036205664 3.8050466
0.21508765 -0.46674907 0.7761228
-0.48751366 0.7208949 2.667335
-0.57580006 0.61690867 2.8150651
-0.80361384 0.6166445 2.072582
1.3407075 0.6244415 2.8787901
0.10241657 -0.51006585 0.9315745
0.35038358 0.87947816 2.8840249
0.5691025 -0.4703077 0.7416646
0.32240272 -0.20067891 4.1014724
-0.5590479 0.40054083 1.7170824
0.8038387 0.5301243 0.99312675
0.88398314 0.46295202 2.92098
0.08899862 0.7964746 2.86106
0.58274823 0.3909778 3.0937417
-0.32542706 -0.69119805 0.6314957
-0.28952083 0.821247 1.8006471
-0.35796574 -0.8885935 1.4670476
-0.14325744 0.3563706 1.3931671
-0.40932187 0.4399246 3.030587
-0.049272723 -1.2425379 3.3582473
0.14321458 -0.9236545 3.6512337
0.22178611 0.5512495 3.1136835
-0.1531694 0.7691871 2.9776387
0.34976083 0.05209427 3.1429663
0.16336761 -0.7984625 4.0368123
-0.22743668 0.9261583 2.0171607
0.48249882 -0.23321721 3.2125704
-0.16574678 -1.3152425 3.8643281
-0.56227636 0.13841659 3.0661206
-0.32041627 -0.6353227 1.0584329
0.47712132 0.41420487 3.1645002
-0.5250868 0.5966321 2.9428647
-0.64760673 -0.013152253 3.0162387
0.45546958 -0.06990961 3.8709557
0.4518795 0.6360412 3.2289767
-0.87365407 0.6288242 2.5492826
