ply
format ascii 1.0
element vertex 1507
property float x
property float y
property float z
end_header
-1.5300288 0.51319885 2.3586426
-1.4328446 0.742321 1.9413271
-1.4122448 -1.6107321 2.8915005
0.79121304 -1.5647526 2.7186904
1.212884 -0.91485786 2.4946318
0.8640976 -1.4946289 2.7470245
1.2560654 -0.93182945 2.4826503
-1.7081604 -0.8782253 2.7072673
-0.6733484 -0.56295776 2.419917
-0.8822732 -0.45248795 2.481927
-0.8635464 0.9515667 2.3115847
-0.6152754 -0.44468498 2.2718062
-0.88585854 -0.49699974 2.4645305
-1.6633348 -2.1772232 2.8720374
-0.052020073 1.3008213 2.3832288
-0.05328083 1.298296 2.366087
-1.0932288 0.4132347 2.4085805
-0.46037292 -0.1790123 2.4715014
-1.3960824 0.5897503 2.2786927
-0.8028965 0.15420532 2.8553748
-0.43161774 0.43940735 2.4197671
-1.5917001 0.25646782 2.467235
-1.3143187 0.80563736 2.2688394
-0.21019459 3.3539085 1.5953631
-0.36814928 -0.24847794 3.0589778
-1.3482103 0.6128006 2.319717
-1.2988634 0.7762642 2.2729683
-0.57364655 -0.39943504 2.264408
-0.7629795 0.16073418 2.8682756
-1.3175101 0.4675808 2.4897275
-0.35702515 2.6596222 1.9651146
-0.57459354 -0.42602158 2.5756392
-2.3250523 -4.6228046 2.625276
-0.16424847 1.0183716 2.3925037
-0.12308788 1.059864 2.8941267
-0.75161266 0.16661453 2.8160224
-0.7075758 -0.68473816 2.3407526
-2.224576 -1.9195957 3.011315
-0.89770174 -0.17589188 2.6019719
-1.1847672 0.47546196 2.42447
-0.71904325 -0.21564865 2.7108145
0.09784174 0.79273224 2.7263982
3.0291257 7.289259 2.8364973
-1.1630411 0.48579597 2.3855424
-0.99124146 -0.7962799 2.7918441
-0.7600918 0.069805145 2.872275
-1.1117735 -1.5101986 2.7524114
-0.675488 -0.13079262 2.5034873
-0.24908829 1.1525154 2.6473389
-1.1282029 0.4592266 2.395722
-1.1861281 0.35593987 2.4557729
-0.91472054 -1.1355476 2.6001048
-0.8968272 -0.21232414 2.607505
-1.4081521 -1.6936674 2.6699326
0.11432409 0.7697048 3.1201181
0.17023277 0.98332596 2.824893
-0.7473297 0.07861519 2.819697
-1.2011876 -1.2521181 2.7093322
0.36748695 2.4145298 2.3940103
4.874972 11.373552 3.419035
-1.7083426 -0.8674736 2.7550404
-0.07619095 0.4363327 2.957518
-0.27814484 0.6632271 2.4003642
-1.12392 0.5107231 2.4746966
0.18015099 0.94363594 2.7852407
-0.9899411 -0.55740166 2.57064
-1.9149818 -2.7983818 2.809609
-0.054330826 1.1036015 2.869038
-1.3123183 -2.4246674 2.6599193
-1.111999 -2.046008 2.6926658
-0.47335815 -0.3344803 2.3678107
-0.85338736 -0.29720116 2.8645308
-0.074754715 0.4009552 2.928289
-1.1433864 0.45440865 2.4320664
-1.0470829 -0.7142906 2.600467
-1.0984392 -0.42357254 2.7477725
-0.61276054 -0.08194351 2.9692574
-0.95826054 -0.5279026 2.5468693
0.08788204 0.6111183 2.713808
-1.1947908 -1.2707176 2.636013
-1.5600061 -2.0542612 2.8261852
-0.9701681 -0.5783596 2.8811371
-1.1145158 0.5144043 2.482942
-1.1502647 0.3194065 2.4238605
-0.9353366 -0.21124458 2.6233058
0.08860779 0.61268806 2.6731458
-1.8033419 -2.5910673 2.7895494
-0.5485878 0.6989174 2.7329948
-0.70185804 -0.2806301 2.5880902
-0.72957134 -0.07254028 2.6641412
-0.31634903 -0.14929199 2.9835706
-1.1675339 -0.646698 2.8043466
-0.9282069 -0.21342659 2.6308937
-0.059293747 1.1164398 2.9310637
-0.92702913 -0.21049309 2.616117
-1.9325728 -2.5884323 3.124328
-0.17989254 0.11915207 2.8795338
-0.69230556 -0.27908516 2.5710554
-0.7731676 0.1621399 2.8650737
-0.6190114 -0.079509735 2.9786
-0.57871723 0.1951046 3.0441387
-0.3720188 -0.27398872 2.8145523
-0.9563937 -0.33028984 2.5992126
-0.78581905 0.07791901 2.8294454
-2.6667423 -4.8581095 2.3855567
-0.5711889 -0.052122116 2.9969637
0.07797623 0.566082 2.7975888
-0.060881138 0.2043972 2.6707382
-0.10322428 -0.20884895 2.9804554
-0.35017776 -0.267828 2.7671132
0.3885231 1.1301441 2.8667135
-0.32425308 -0.27682495 3.01857
-0.5816307 0.18955803 3.0197349
-1.7526059 -2.5309525 2.7898636
-0.78089905 0.0890255 2.8012702
-0.5257664 -0.68530273 2.9436045
-0.7002888 -0.31406593 2.5594208
0.4080124 1.1079178 2.8782568
-0.5831804 0.1868515 2.994862
-0.87750196 -0.14314842 2.6224952
-0.7534542 0.08613205 2.8677943
-0.61977434 -0.13329697 2.557311
-0.70192623 -0.075372696 2.821261
-0.24881744 1.1478825 2.598899
-0.7979703 0.04727745 2.8220136
-0.8824415 -1.393816 2.869647
-0.48386717 0.8516865 2.8822107
-0.8670974 -0.15867043 2.5689354
-0.74335575 0.0892086 2.8147826
-0.6358614 -0.24520111 2.8689773
-0.7605939 0.0812664 2.8261204
0.28189564 1.6151905 3.0627208
-0.98415756 -0.50639725 2.659763
0.16424847 1.3296719 2.704187
-0.54129267 0.6328621 2.7517567
0.15217113 2.4476604 2.778201
-0.89073277 -0.21257591 2.602777
0.19576359 1.4229298 2.6920588
-1.2329998 -1.1969404 2.8733904
-0.16963959 0.6245632 3.090857
-1.009007 -0.61180687 2.7171607
0.44798565 2.5686417 2.2534533
0.16021252 1.2697182 2.6206982
-0.58544874 0.45275116 2.838894
-3.3366804 -6.7511826 2.1191175
-1.1160836 -1.4334297 2.6082106
-2.7199912 -5.8781624 2.3466141
-0.85250187 -0.29261017 2.8672826
-2.1672854 -3.7399254 2.461164
-0.9531646 -0.49310493 2.5618057
-1.1433096 -0.9335613 2.9767163
-0.5057936 -1.0970058 2.3798602
-0.73915863 -0.09120369 2.6583068
0.8783407 2.6869965 2.0865617
-0.18693161 -0.057180405 2.3748431
-0.8670778 -0.9102974 2.4567802
-0.7000179 -0.0049419403 2.440215
-0.7297468 -0.09231758 2.8361068
0.29783392 0.56090164 2.8374736
0.045463562 0.36956596 2.668573
-0.5893717 0.19012451 2.9982522
0.045648575 0.34602547 3.0159588
-0.71223164 -0.15056229 2.6743972
-0.58569527 0.20831299 2.5699964
-0.4272585 0.425663 2.374709
-0.03791046 1.669199 2.8287125
-0.7507067 -1.2077942 2.804369
0.0046663284 1.3238163 2.1133037
-0.7288141 -0.17443848 2.7234397
-0.5798111 0.189394 3.0406103
-0.4037838 0.02379036 2.3660865
0.3120017 0.55265045 2.7966251
-0.3685999 0.08223915 3.1557498
-0.12710571 0.0016307831 2.3989444
-0.5804062 0.1887989 3.0149026
0.04674864 -0.035060883 2.422382
-0.57308865 0.12534904 2.315494
-0.66071033 -0.038909912 2.9806395
-0.6390152 -0.46225357 2.4841383
-0.14096355 -0.043979645 2.4019175
-0.75886726 -1.2387495 2.6291924
-1.2301202 -1.2572746 2.6475878
0.14293575 1.6662178 2.6768732
-0.46438074 -1.1645327 2.7906308
-0.1503067 0.53987694 2.2095423
-0.9734278 -1.221448 2.6006296
-1.0506577 -1.0575151 2.9102397
-0.75908184 -0.19423866 2.8492486
-0.6870527 -0.15544319 2.6897714
5.0375934 10.564917 3.211801
0.34047318 0.8597088 2.8029609
-0.6776867 -0.15139961 2.5043793
-0.7811794 -0.23063087 2.475556
-0.58870125 -0.4743805 2.629122
0.37045336 0.6005173 2.8069105
-0.2045846 1.0855331 3.1235242
-0.112835884 0.57769394 2.2107556
-0.6803198 -0.15652466 2.4886563
-0.0065631866 0.19639969 2.3858356
-0.07638836 0.032556534 3.2123737
-0.6283941 0.060979843 2.6189651
-0.6067538 -0.026023865 3.0222926
-1.1594367 -1.1663494 2.7370203
-0.16694164 -0.16954803 2.4598823
-0.6078367 -0.054878235 3.0034935
0.24566078 0.59856224 2.8824897
0.24643326 0.6002655 2.8637996
0.18751717 1.1149387 3.0363216
-1.3197641 -1.5144176 2.7740846
0.6128454 2.015316 2.2482154
-0.057113647 0.6072502 3.050357
-0.19457722 1.021925 3.1018977
-0.28815842 0.13223457 2.4831357
0.27760124 0.66874313 2.1347208
0.36428833 1.381321 2.9926436
0.9609971 1.8611412 2.4629874
-0.68831015 -0.6539173 2.5587344
-0.6009035 -0.077596664 2.9642756
-0.08862877 -0.03581047 2.2861066
-0.01992035 0.06668663 3.1825771
-0.18731737 1.0183029 3.1100264
-0.13011551 -0.16131401 3.035674
0.6676364 1.09585 3.0695438
-0.103084564 0.3789444 2.996489
-0.70896006 -0.6955986 2.5331671
-0.40309143 0.47758102 2.9159536
1.5144463 3.6431618 2.7914047
-0.27739048 -0.07102585 2.814541
1.6642551 3.8823318 2.784906
0.44117498 0.6161308 2.9971871
0.31629562 0.6846943 2.0982509
-0.56957054 -0.051532745 2.9919074
-0.014045715 0.021650314 3.2168303
-0.9661217 -1.0025549 2.5083618
-1.1725488 -1.1001434 2.8886414
0.1775155 0.057447433 2.4953766
-0.68414307 -0.2782383 2.5582035
0.3142786 1.3195095 2.9453297
-0.37855387 -1.1547384 2.9173977
-0.700778 -0.14637184 2.673154
-0.70031357 -0.329813 2.5510159
0.50494623 0.67399025 3.0499487
-0.91891384 -0.9225149 2.479147
-0.35224438 -0.025407791 2.445196
-0.42757034 0.4213009 2.3374448
-0.1321435 -0.6694832 2.9472558
-0.3272667 0.0067253113 2.4313757
0.19445133 0.99814224 2.9450514
-0.91251373 -0.5755539 2.4730263
-0.31612396 0.39442253 2.7418177
-0.35874844 0.5665035 2.1588392
-0.31693363 -0.2435894 2.8907092
-0.014543533 0.031049728 2.2704945
0.19458675 1.3970318 2.6062942
0.20240688 0.39886475 3.070496
-0.43934822 -0.82452965 3.0219374
-0.10295105 0.36023903 2.9589503
0.12360668 0.2333107 2.7239852
0.09856224 0.14752388 2.7713656
0.5237031 0.6750431 3.0503488
-0.5973635 0.03994751 2.946806
0.114305496 1.2128563 2.6470928
-0.16818047 0.6123848 3.0652342
0.051834106 1.0271015 2.5792904
-0.69023895 -0.182127 2.687208
0.15688705 0.26358604 2.2415304
-0.007817268 0.8862381 2.5952575
-0.94169474 -0.9990816 2.5237463
-0.29300404 -0.09648514 3.0198085
-0.6885519 -0.17398071 2.4803486
0.0066137314 -0.48468304 2.8796337
-0.8538451 -1.254034 2.9417543
-0.13382816 0.13128662 2.5673504
0.30175686 0.5401764 2.1236963
0.006849289 -0.48420238 2.8334532
-0.31645012 -0.6973438 2.9991498
0.20785427 0.8504009 2.905739
-1.129571 -1.0989552 2.7547572
-0.1367445 0.10395622 3.1762793
0.38431168 0.6121445 2.9566212
-0.089149475 -0.32036972 2.9055333
-0.56389236 -0.7445755 2.9356713
0.096035 0.009365082 3.1106758
-0.24976015 -1.0390167 2.567148
-0.9180093 -0.93970394 2.4852571
0.832984 1.4037209 2.720313
-0.5025096 -0.63775444 2.6455636
-0.34652042 -0.82409286 2.8669176
0.34206295 1.042551 2.4217682
0.61868 0.93976593 2.83221
-0.055054665 1.0728378 2.7665217
-0.44982624 -0.5349064 2.9001136
-0.655859 -0.3769226 2.8306394
-1.098589 -1.052391 2.6938653
-0.23543978 -1.0607395 2.4258003
-0.074296 1.014164 2.732781
-0.6240864 -0.93762016 2.702821
0.88312244 2.1208096 2.3000836
0.14135265 0.5177498 3.057979
-1.6590962 -3.112383 2.9095643
-0.336051 -0.8530121 2.2891216
0.07579231 -0.075998306 2.031086
-0.14725971 0.5188751 3.0927856
-0.7046747 -0.26467705 2.5251932
-1.5916691 -2.725151 2.4290786
-1.0523915 -1.7490807 2.780685
0.26224136 0.7645092 2.4972935
-0.64544964 -0.49324608 2.4563189
0.38432884 0.44548035 2.2922559
-3.3855495 -7.268856 2.0701516
0.26186466 0.764019 2.4460618
-0.69253874 -1.0677271 2.694604
2.1485977 4.474266 2.813513
0.7751107 3.11129 2.9433208
-0.5978441 -0.075696945 2.957946
-0.84172916 -0.8878765 2.4326615
-0.5731034 -0.49149323 2.72714
-0.70452356 -1.1088982 2.7234995
-0.38743973 0.007200241 2.454494
-0.6834841 -0.27868843 2.5512166
-0.68753624 -0.30545616 2.5397406
0.88886213 3.0777683 3.0911164
-0.4452572 -0.59459496 2.6326573
0.81116676 1.8981228 2.1471698
0.08799553 0.33825874 2.4935994
-0.028993607 0.0086193085 3.1931117
-0.5659661 -0.49363995 2.7346983
-0.53908825 -0.31393623 2.309043
0.5488434 1.8524113 2.1401749
0.5046644 0.6141987 2.1936154
0.29513454 0.65906525 2.4952412
0.19961643 0.5889225 2.4824524
-0.49629593 -0.2856331 2.4597259
0.2914772 0.7514858 2.3884437
-0.6118641 -0.21500778 2.8471491
-0.5896187 -1.4344854 2.4781795
0.25704575 0.12655067 3.1785254
0.31935692 0.6884384 2.5006573
0.65730286 0.8757763 2.9614773
0.57368183 0.72037125 2.8144174
0.19024277 1.3711567 2.536171
0.2904482 0.7498417 2.33627
-0.1692028 0.59703255 3.0429857
1.4504528 3.008625 2.72868
1.051589 1.5979748 1.995512
-0.7119684 -0.7181225 2.5149915
-0.12399578 -0.12550545 3.0634685
-0.15126991 0.4428215 3.1313572
0.04525566 0.99853706 2.5238142
0.15939617 1.0007553 2.905317
0.11967373 0.9012604 2.9386575
0.2354374 0.053455353 2.4151855
0.082333565 -0.25312424 2.9605894
-0.7175598 -0.78336716 2.5422792
-0.3641796 0.08835602 3.158371
-0.379282 -0.12501907 2.398475
0.48078823 0.49295616 2.2329035
0.29102325 1.1843376 2.899432
1.1071596 1.5983467 2.4787788
0.1951456 0.9740715 2.8795123
1.0491257 1.4718857 2.179881
0.21356869 0.9713516 2.8874743
0.3307228 0.77150345 2.3573651
-0.37884426 -0.8942671 2.3714461
0.0069417953 0.07565117 3.1970825
-0.19422913 -1.0778351 2.4258332
-0.060936928 0.42628098 2.9083638
0.33385658 0.66332626 2.3960829
-0.45535707 -1.0450897 2.3649082
0.06302261 -0.4142437 2.7676635
-0.66141415 -0.5296173 2.4365377
-0.5997286 -0.40400505 2.293993
1.2317495 1.7502098 2.099153
0.0197649 -0.51226807 2.8193698
0.47406673 0.7109909 2.6128821
0.25069523 0.98698235 2.8202932
-0.18389606 0.12584114 2.9316177
-0.037163734 0.3807583 2.7222476
-3.0525334 -6.681196 2.2527082
0.2886572 1.0032864 2.8153944
-0.46194267 -0.17011642 2.4900227
0.4953947 1.7224979 2.0642967
-0.8587866 -1.2614775 2.9784386
-0.14084625 0.09641075 3.1702652
-0.36009407 -0.8798828 2.3490086
0.16231537 0.6939182 3.032517
-0.19885635 -0.015651703 2.9939308
-0.29870605 0.14166832 2.1490488
-0.54783916 -0.7188034 2.9414356
-0.09814882 0.50764275 2.8131366
-0.6392865 -0.82641506 2.9996667
-1.8561931 -3.7846193 2.6470685
-0.4324932 -1.019393 2.3484728
0.4487028 0.62389565 2.5685825
-1.1450491 -1.5862293 2.7467408
0.72959614 0.7802677 2.8790684
0.25118923 -0.122125626 3.216474
-0.4294014 -1.0957432 2.3989868
-0.28352737 -1.1062679 2.496232
-2.8074055 -6.0974817 2.2877767
-0.72371674 -0.74594307 2.5030208
0.49672508 0.6951618 2.5045874
0.09410572 0.8508835 2.8983774
0.15783215 0.9779644 2.8537967
2.2876558 4.159462 2.3235366
-0.14862299 -1.1029148 2.2550535
-0.4328966 -0.24136162 2.3802018
0.16965866 0.92171097 2.8891394
0.97837925 1.1652393 1.2615843
0.17865849 0.9402485 2.8399508
-0.2458353 -1.1059322 2.542419
-0.70289516 -0.9824419 2.7644362
-0.07050896 0.40812874 2.9588401
-0.29102993 -1.2065659 2.8239918
-0.19646168 -1.0842113 2.5312147
0.6015692 0.35700607 2.80933
-0.19679356 -1.1191101 2.454063
-0.20819473 0.1186924 2.9146087
0.55626297 0.77194977 2.439711
-0.13683891 -1.0956602 2.4853837
-0.30516243 -0.1289959 2.9911392
-0.1069417 -1.034298 2.0836906
-0.17810917 0.12153435 2.9026446
-0.4942894 -1.2396746 2.4209397
0.59253645 2.1422806 2.9019287
1.1938543 1.9529972 2.3598602
-0.11070347 0.23756981 2.7100224
-0.33908176 -0.2293396 2.7719367
2.3213668 3.9514885 1.8510793
-0.25320816 -0.08264923 2.9785857
0.26602364 0.89396477 2.9575703
1.616931 2.7410202 2.2285597
-0.31358528 -0.2564144 3.0218017
-0.16673994 -1.1739225 2.787338
-0.22370338 -0.11405945 2.4849966
0.17181683 0.6756439 2.632227
0.51200294 0.67284393 2.5798986
-0.754436 -1.7972126 2.4892936
-0.9295597 -1.5685873 2.917811
0.49755573 0.5512905 2.792797
0.55141544 0.2476654 1.6112165
-0.25135708 -0.20517349 2.5184786
0.051638603 0.36301804 3.0555344
-0.49585772 -0.5189285 2.72027
-0.15811586 -1.2067795 2.7791014
0.23968697 0.033906937 2.353386
-1.2140684 -2.2774162 2.5864787
0.5304556 0.5411453 2.7923594
-0.020344734 0.22847366 2.4574587
-0.07150078 -0.48225975 2.3015995
0.09933567 -0.631361 2.9304538
0.75368786 1.7245731 2.0201566
0.41837788 1.022604 2.8932753
0.4052601 0.93886185 2.904955
0.4919896 1.8101177 3.1400115
-0.20462179 0.10792923 3.1134706
-2.3105392 -4.974045 2.43244
0.5753603 0.7332058 2.4605088
0.07287598 0.29781723 2.447623
0.4198017 0.34405136 2.7199883
0.29412746 0.72872543 2.2913253
-0.29306602 -1.0829077 2.5076456
-0.1620264 0.20845795 2.7487822
0.16693306 0.48185158 2.2881138
-0.051582336 0.012765884 3.1999514
-0.48135853 -0.58084106 2.7607417
-0.1272564 -0.13254929 3.0547047
-0.30789566 -0.2934513 2.4802856
0.11354923 0.50403786 2.6769207
0.52573395 0.48979568 2.6989334
0.33331394 0.74739456 2.2581875
0.4687109 -0.03155899 2.7753901
1.2886391 1.913023 2.5178866
0.056729794 0.715477 2.834547
-0.03409481 0.18299675 2.4037561
-0.74810886 -1.2030306 2.6287775
-0.059535027 -1.0561886 2.2179108
0.057806015 0.7177849 2.7863715
-0.13203526 -1.1382408 2.4587593
-0.066550255 -0.7320938 2.8092906
-2.9411006 -6.531599 2.2837315
-0.028967857 -0.659956 2.7558548
-0.28840828 -1.0828695 2.505136
-0.113568306 -1.1050434 2.225679
-0.24974632 -1.0831337 2.5599675
0.06421375 0.20727539 2.3494952
0.00872612 0.074560165 3.196906
-0.24129772 -1.1167421 2.4463296
0.20680618 0.40174866 3.109364
-0.079152584 -1.1130114 1.7572935
-0.21181583 -1.0603542 2.4170144
-0.060503006 -1.091938 1.9127913
-0.21863079 -1.0901413 2.5592296
0.019052505 0.5830841 2.8230479
-0.7586565 -1.2407827 2.6291862
-0.20398617 -1.0953541 2.4738688
-0.13878345 -1.1510792 1.8957171
0.2756319 0.5214119 2.3254662
-0.18306923 -1.2472086 2.7947102
-0.1312294 -1.1545277 1.9301281
-0.2826624 -0.39152908 2.5564566
-0.058556557 0.015008926 3.2038512
-0.17121983 -1.2427034 2.7586246
0.28501225 0.6796284 2.9092338
-0.053550243 -1.1283035 1.9059004
0.065029144 -0.4145317 1.8605497
-0.030334473 0.4435978 2.7788305
0.09010315 -0.8050766 2.6739979
0.37264538 0.7085209 2.2519987
-0.41760254 -0.8341942 3.0125074
-0.3283348 -0.71502876 2.9976685
0.18554783 0.23158455 3.0887244
-0.16523743 -1.2656279 2.7545295
0.2918625 0.700222 2.2071242
-0.17958069 -1.0820532 2.417409
0.02152443 0.17889977 2.283486
-0.19970655 0.016887665 2.7331488
-0.025788307 -0.67354393 2.721079
-0.07596207 -1.1233845 1.9055605
-0.24438381 -1.083684 2.5577636
-0.093574524 -1.1551819 1.8816633
-0.0926528 -1.240962 2.6608837
0.6170864 0.09071159 2.5249515
-0.055853844 -0.7470894 2.7793171
0.33084774 0.7175102 2.1721902
-0.091516495 -1.1859398 1.7854447
0.0027971268 0.059173584 3.2003746
-0.10398388 -1.2255249 1.7544808
-0.2424736 -1.0967674 2.5513048
-0.24581718 -1.4828749 0.8862672
-0.24277115 -1.0973024 2.5355558
-0.06812 -1.1777153 1.9098587
-0.028723717 -1.1412563 1.894794
-1.7941852 -3.6227093 2.9362195
-0.22576046 -1.0986443 2.4394855
-0.019331932 -1.1415577 1.8848553
-3.1376123 -7.397484 1.925738
-0.21518326 -1.095624 2.5493815
-0.21717834 -1.0992851 2.4786353
-0.19860744 -1.0978651 2.4692752
0.63819313 1.0074062 1.8890176
-3.2012935 -7.5262394 1.9169624
0.31645012 0.872736 2.5699067
0.78985834 0.5249138 1.6985705
0.029356003 0.118816376 2.3032694
0.44726372 0.5849323 2.4253814
0.46579742 0.9135628 2.6354914
1.0726795 2.0531921 2.7505558
0.31867313 0.61257935 2.6742747
0.78943014 0.52405167 1.6821363
-2.3480926 -5.377713 2.084138
-0.16264153 -1.0640736 2.406912
-0.18378448 -1.1066313 2.4351835
0.19904518 0.36865044 2.2721653
0.52058744 -0.072704315 1.8597599
-0.4625497 -0.9547949 2.3886867
0.525465 0.6768551 2.3513107
0.0021233559 -1.1164017 1.7266371
-0.4677534 -0.90725327 2.5655274
-0.38612556 -0.77296066 3.0152817
-0.5425663 -1.3414097 2.4413733
0.37347507 0.3491783 3.1480503
1.1507444 1.818716 2.218367
-0.3624735 -1.0536499 2.756749
0.20923805 0.6022072 2.8875384
0.57118225 -0.12274742 1.3879809
0.029017448 -1.0790586 1.8521677
0.060450554 -1.0156574 0.66024756
0.060303688 -1.0159464 0.61539495
0.26207256 0.4321518 2.2621675
-0.3249197 -0.70900154 2.9984994
0.54250336 0.92183685 2.9289489
-0.73221207 -2.4481106 2.1579251
0.0759573 -1.010376 0.6822772
0.074186325 -1.0137196 0.63855314
-0.064967155 -0.4912243 2.2618058
0.038632393 -1.076479 1.7549881
0.03889084 -1.0759525 1.7176517
0.39705276 0.63191223 2.2274356
0.0075092316 -1.1389732 1.6156634
-0.08597565 -0.30807304 2.9155152
0.0039076805 -1.1462011 1.5788071
0.31464577 0.43180275 3.0359154
0.1119709 0.050683975 2.660091
0.69921446 1.6835747 2.6148686
-0.1784401 -1.1101055 2.4297662
0.07884407 -1.0461464 1.9857883
0.5487232 0.6453953 2.3720844
0.35332966 0.25632668 3.1606266
0.46151447 0.46081161 2.8659546
0.5346136 0.54162216 3.1141005
-0.05790806 -0.567606 2.8081088
0.88533926 0.5686226 1.8864655
1.2449656 1.795496 2.3664258
-0.34337425 -0.86180115 2.3081994
0.09473801 -0.033023834 2.0699139
0.052762985 -0.4480133 2.8241045
0.060735703 -1.0821676 0.85203755
0.060664177 -1.082304 0.81476736
0.12828398 0.3320923 2.8789387
0.100067616 -1.0033779 0.65767217
0.0965662 -1.0271492 0.6223295
-0.038775444 -0.61865616 2.822233
-0.13497734 -1.1133757 2.2472706
-0.13020134 -1.1208277 2.4805026
0.41495037 0.5129204 2.3482685
-0.08699322 -1.0394106 2.0738688
0.4113989 0.9493141 2.5610461
-0.13159084 -1.123538 1.9369016
0.10553551 -0.9752121 0.6390114
0.47324467 0.6037502 2.33425
-0.47519922 -1.1663074 2.7795892
-0.121276855 -1.1035881 2.2338834
-0.72214794 -1.739913 2.3755345
-0.085837364 -1.0381374 2.070015
-0.18411827 -1.2359028 2.8080134
-0.15240002 -1.1953983 2.772678
-0.12458801 -1.1261377 2.4757555
-1.2134981 -2.8938694 2.5765483
-0.08104801 -1.0459375 2.062741
-0.12609291 -1.12918 1.9344122
-0.13767433 -1.1830006 2.7601104
-0.12147999 -1.1537933 1.8897967
-0.28388977 -1.0916309 2.4970515
0.10574865 -1.0257893 1.7154617
0.5231819 0.39256668 2.6773875
0.108501434 -1.0200462 0.6586913
0.11590576 -1.0052481 0.6347079
0.47216415 0.5641022 2.2872224
0.06041336 -0.23077774 3.0691457
0.27631187 -0.7023611 2.6391618
0.38949013 0.8163376 2.6418202
-0.42316246 -1.1337175 2.3899207
0.26168633 0.12762833 3.1851192
1.1023893 1.7074871 2.1006885
-0.10473728 -1.1559706 1.9287298
1.0271101 1.5465317 2.1095738
0.07385731 -0.84345627 2.7499614
-0.095871925 -1.15621 1.8960464
-0.100995064 -1.198698 1.7831388
-0.056624413 -0.7549324 2.7525597
-0.06816864 -1.1548157 1.917558
-0.23915577 -1.0927963 2.5500793
-0.22339725 -1.097065 2.4356568
-0.11068535 -1.1501236 1.930809
-0.21181488 -1.0925817 2.5476508
-0.033254623 -1.2315826 2.52745
-0.09371567 -1.1347294 1.9203467
-0.18200016 -1.0710487 2.4601812
0.12653494 0.089588165 2.5698397
-0.101719856 -1.1497574 1.8990955
-0.18116283 -1.1030188 2.4083977
-0.04091835 -1.068533 2.207193
-0.018838882 -1.0647516 1.72248
-0.066459656 -1.1681557 1.9114475
-0.06562996 -1.1667013 1.8711414
-0.028914452 -1.132474 1.8948936
-0.050139427 -1.1712723 1.8705571
1.0277863 2.1406841 3.2691138
-0.19367695 -0.70103645 2.963181
0.50157166 0.5435505 2.3062658
-0.20241022 -0.75798225 3.0023837
0.08778763 -1.0784426 2.0085595
0.12690401 -1.000308 1.7070048
-0.07384968 -0.5315056 2.2353806
0.09396982 -1.0658264 0.84970295
0.08955002 -1.0746374 0.8056991
0.35689926 0.25085068 3.149161
1.091011 1.0313053 1.4447632
0.100626945 -0.22676468 2.961603
1.2653828 1.8904343 2.2062998
-0.032193184 -1.069068 1.7370725
-0.072649 -1.1609879 1.9142163
0.7190032 0.12710762 2.4917696
-0.051478386 -1.1542482 1.9122391
0.131289 -1.0418339 1.9629244
-0.049814224 -1.1675224 1.905812
-0.054564476 -1.1764126 1.8681228
0.10992241 -1.0843267 1.9262601
0.11452484 -1.0748758 0.8421606
1.3004084 1.8748302 2.2056522
0.109647274 -1.084569 0.8131702
0.13672638 -1.0306606 0.6584306
0.007753372 -0.5408535 2.8191779
0.13656569 -1.0309706 0.6210171
0.84576607 0.4638157 1.5092406
0.30414152 -0.71519566 2.4859037
0.009756088 -0.31124306 3.04494
0.84429264 0.46105576 1.4924097
0.007648468 -1.0991621 1.68539
-1.2506223 -3.431779 2.0663865
-0.020520687 -0.43715096 2.8875823
-0.015721798 -0.4449377 2.9327123
-0.5996623 -2.2371979 2.0199592
0.027709961 -1.1613026 1.5956726
0.023791313 -1.1684799 1.5544839
-0.84506845 -2.6668606 2.1606216
0.7248063 0.10274887 2.515678
0.1379571 -1.0619888 2.157938
-0.28628922 -1.1015053 2.5010118
0.85459423 0.4255085 1.4247811
0.8526192 0.421875 1.4078519
-0.11796379 -1.1042976 2.2312958
-0.2951212 -1.203187 2.8270035
-0.18114471 -1.2358332 2.8014512
0.08543491 -1.0738277 1.9656816
-0.24460316 -1.1097202 2.547955
-0.12357235 -1.1310463 2.4648108
-0.22154617 -1.1011009 2.42723
-0.120845795 -1.1264601 1.973279
-0.1224699 -1.1294556 1.932934
-0.21811008 -1.111908 2.545528
0.6824994 9.6321106E-4 2.5219638
-0.18621159 -1.0872574 2.4538918
0.1345954 -1.0852356 1.9709721
0.011553764 -1.1353083 1.8830204
0.040942192 -1.0809145 1.8438396
0.89510155 0.36266708 1.4112592
1.1384768 0.9053421 1.6088626
0.1396265 -1.0749044 0.8113804
0.070739746 -1.0275135 0.67161536
0.069888115 -1.0291643 0.6241672
0.032957077 -1.1122322 1.753787
-0.0615139 -1.2559328 2.5429847
1.3629727 1.3309536 2.5114288
0.14869118 -1.0735636 0.84833884
0.07292843 -1.0157452 0.66894865
0.14796734 -1.0749865 0.81856227
0.07224178 -1.0170889 0.62814
-0.17182827 -1.2353497 2.7684698
-0.11797333 -1.1547127 1.8879948
0.090143204 -0.7917423 2.7213938
0.7166481 0.49187088 2.6754549
0.022442818 -1.1212234 1.8808985
-0.24449158 -1.0551033 2.4323866
-0.10063648 -1.1564741 1.9275968
0.07803154 -0.8474922 2.730672
-0.094472885 -1.1619968 1.8869295
-0.09505749 -1.196497 1.7868619
1.0989017 0.8332882 1.4560559
-0.06390476 -1.1564512 1.915551
0.020972252 -1.1509924 1.6103077
0.0075063705 -1.1759634 1.5673647
0.11219025 -1.0005522 0.6393192
0.33303452 -0.64801025 2.5492406
0.13591671 -1.1158619 2.1655977
-0.011574745 -1.0621538 1.7097874
-0.062135696 -1.169877 1.9097137
-0.06163025 -1.1690569 1.8683894
-0.02503872 -1.1361446 1.89114
-0.045980453 -1.1739912 1.8676932
0.9979181 0.51914597 0.012948513
0.06847477 -1.0952568 1.9850001
0.38022232 -0.5755291 0.44676876
0.09342623 -1.2164698 2.4110036
-0.10787392 -1.4462862 2.7874122
0.1472125 -1.1099072 1.6424382
0.96655846 0.5613098 1.6811655
1.0914254 0.7373791 2.4266148
0.1535654 -1.1634178 1.7110271
0.69629 0.38121796 2.7055192
0.00931263 -1.1786909 1.5614297
0.028877258 -1.159523 1.6047628
0.10279465 -1.0283308 0.63526154
0.38109922 -0.7326422 1.8727571
-0.13047409 -1.1377592 2.466228
-0.8791728 -2.72186 2.1211681
-0.11285305 -1.1060028 2.2319202
-0.20827961 -1.0632076 2.432917
0.109334946 -1.071661 0.86630964
-0.1356535 -1.147665 1.9325728
-0.17105007 -1.2444715 2.7645001
0.590549 -0.3208542 1.729885
0.08447552 -1.074233 1.981463
0.070290565 -1.0940008 0.8575287
0.09333897 -0.7999382 2.6964734
0.05582428 -1.120758 0.82352376
0.10295868 -1.0341463 0.62997794
0.38001633 -0.53613853 2.5962172
0.74698496 -0.031038284 1.8170002
0.95944023 0.5077019 1.598038
0.5061717 -0.5555506 2.6058164
-0.08319759 -1.1372795 1.915276
-0.09322834 -1.155448 1.8868766
0.19706774 -1.160203 1.7551382
-0.09096146 -1.1852875 1.7921057
-0.103037834 -1.2239447 1.7604747
0.5919304 -0.16282272 2.5690403
-0.050569534 -1.1459932 1.9047465
-0.024445534 -1.1327953 1.8900385
0.11806202 -0.350132 2.510115
-0.015377045 -1.1830816 2.52873
0.07804012 -1.020978 0.6735368
0.07700634 -1.0229645 0.6316843
0.111756325 -1.0780239 2.006607
0.0751667 -1.0942926 0.8654828
0.0670414 -1.1091003 0.82849264
1.1686482 0.7046776 1.8150979
0.25418568 -1.1306467 1.7013443
0.12831593 -1.0506058 1.6735334
0.32170486 -0.6600456 2.5926058
0.2586999 -1.1384935 2.2104013
0.12015438 -1.0353804 0.6684985
0.12693882 -1.0229406 0.6418226
0.13233757 -1.0130501 0.6156702
0.114896774 -1.0587139 2.0099704
0.15889359 -1.0137138 1.6503549
0.10939598 -1.115387 2.137784
0.140728 -1.0679207 0.85988617
0.75885916 -0.16559792 1.8832083
0.11967182 -1.0310583 0.64214563
0.1306467 -1.0112896 0.62018776
-0.12540627 -1.4836998 2.7228637
0.20289993 -0.8975458 1.670186
-0.7955351 -2.5622797 2.1410618
-0.16706562 -1.0959425 2.2571943
0.9071851 0.1228981 1.8366938
0.3126092 -1.032877 0.68169713
0.17123699 -1.0152054 0.65831614
0.16226864 -1.0311966 0.63781023
0.25983238 -1.1529264 2.749247
0.14080334 -1.078022 1.9502935
0.11470413 -1.1243267 1.9222403
-1.5524654 -4.685939 1.8911483
0.1483984 -1.0715656 0.86867666
0.086948395 -1.1060619 0.86657906
0.14720917 -1.0739479 0.8247676
0.2935686 -1.1031923 1.6100585
0.09806061 -1.0861683 0.8121915
0.12530708 -1.0373974 0.6757903
0.027266502 -1.1422501 1.7050076
0.027363777 -1.15903 1.6007123
0.013438225 -1.1841335 1.557764
0.119475365 -1.0602016 2.0088725
0.12842846 -1.0450821 1.6903245
1.0896864 0.58150864 2.1386132
1.178585 0.73682404 1.8923378
0.32056665 -1.0507727 1.5628102
0.10657883 -1.10672 1.9683943
0.12140465 -1.0820255 0.8512137
2.4450607 4.6887207 2.1987643
0.08418846 -1.072484 1.9751723
-0.19046688 -1.1828375 2.7889857
0.097800255 -0.9861088 0.645771
-0.1472969 -1.0872831 2.4842443
0.07727909 -1.0228462 0.63311625
0.11155701 -1.1073818 1.9681017
0.12479019 -1.0874395 0.8504844
-0.12942791 -1.0479326 2.0927472
0.17684364 -0.99439526 0.6608658
-0.12578678 -1.0575914 2.0850995
0.16615295 -1.0136786 0.6496401
0.16087914 -1.0753593 2.1296306
0.15716839 -1.0299225 0.6293602
0.16704178 -1.0731544 0.8660321
0.1645279 -1.0778198 0.832005
1.0186062 0.5983391 1.485755
0.144104 -1.0408602 0.62738085
0.7635288 0.19257355 2.3816214
0.9541726 0.16098976 1.8355556
-0.16892958 -1.2055302 2.7806535
0.07631397 -1.0907116 0.8686166
0.062314034 -1.1159296 0.82593155
0.10837555 -1.0341787 0.63870907
0.3167553 -0.7531433 2.4077015
0.14881134 -1.0567999 1.9495184
0.11552143 -1.1167669 1.9208658
0.14234352 -1.07236 0.8537097
0.12565327 -1.1024923 0.82068014
0.31488514 -0.73991776 2.430032
0.53887606 -0.6440611 1.7306849
-0.034345627 -1.2318726 2.5327005
0.11328697 -1.1107807 1.9292283
0.1204195 -1.1003027 0.81457496
0.15416908 -1.0387936 0.65005183
0.5713606 -0.36808014 2.2612042
1.117959 0.66928864 2.3370416
0.14802456 -1.1161022 1.9676895
0.9340086 1.2300072 2.0392141
0.68309784 -0.17770195 1.3398643
0.120547295 -1.0292273 0.6443143
0.4129429 -0.51600266 2.5527883
0.08999348 -1.0997372 0.8689928
0.09822941 -1.085247 0.8137369
0.17927456 -1.0897675 2.6654692
0.15797997 -1.0723505 2.1446662
1.1186552 0.6978359 2.4254541
0.25138283 -0.96432877 2.4819646
0.15354252 -1.0690546 2.1503582
-0.27803326 -2.2580862 1.8015823
0.10549927 -1.2382126 2.4003372
0.37337732 -0.99732494 0.72932494
0.3734975 -0.9970808 0.70665693
0.12817287 -1.204256 1.6360655
-0.081320286 -1.0653582 2.224387
0.13572979 -1.0190268 0.6226673
0.60605335 -0.28450012 2.3636787
1.3432207 1.0361481 2.1163228
0.15207577 -1.0999823 1.9637547
0.86534214 0.21651268 2.361755
0.18843651 -0.93388367 2.5119166
0.18528366 -1.1289139 2.7417479
0.17996979 -1.1448345 1.9270105
1.361866 1.1239109 2.232069
1.0736904 0.5498009 1.3234017
0.18064976 -1.1609173 1.8787866
0.1610775 -1.0882092 0.8548727
0.14350224 -1.1041298 1.9738841
0.1592331 -1.0916414 0.8229637
0.17577457 -1.1704464 1.7598267
-0.109507084 -1.1450377 1.7624791
0.16456985 -1.1904526 1.7143626
0.19958973 -1.1449833 1.8370514
0.02841568 -1.1398678 1.7067609
1.0579281 0.5661583 1.4142284
0.73849106 -0.22333527 1.4180799
0.026242256 -1.1610441 1.5929055
0.14726543 -1.100112 0.85986614
0.022428513 -1.1680164 1.5524898
0.1556387 -1.0848942 0.82489944
0.22062588 -1.1340599 2.7215528
0.31084394 -1.1513996 1.6113253
0.098750114 -1.3480463 2.5969338
0.25455284 -1.091505 2.725325
0.28914452 -1.2102566 2.8825405
0.11954403 -1.0589685 2.002189
0.19492579 -0.49399567 1.9422183
0.12929058 -1.154892 2.5101233
0.3359599 -1.11934 1.7974992
0.39010763 -1.0143204 0.77527297
0.37413788 -0.5457268 0.4776578
0.104468346 -1.0257206 0.6384516
0.3484974 -1.1115589 1.9323816
0.6990242 -0.10468292 2.4029355
1.3627672 0.8354397 1.9811883
0.21283436 -1.1731663 1.7551584
-0.07273722 -1.0817776 1.7573309
0.22644997 -1.1819324 1.8777137
0.25954056 -1.1429996 1.6877475
0.12751389 -1.0460844 1.6830792
0.10796356 -1.084446 0.8545184
0.3187089 -1.1688328 1.7538916
0.4004321 -1.0108261 0.78218305
0.15412712 -1.1280985 2.1607697
0.10237312 -1.2228327 1.6489539
0.085250854 -1.0710621 1.9728775
0.1375246 -1.1469545 2.1665878
0.161273 -1.1295166 2.6406145
0.23198462 -0.43094063 1.8994398
0.32947063 -1.0232162 1.4948535
0.18431854 -0.9615803 1.6515679
1.1075859 0.62067604 1.369456
0.09519768 -1.1347885 2.150469
0.12554646 -1.086566 0.85272217
-0.063284874 -1.1136255 1.9092374
0.8331604 0.2586937 1.5128937
0.15022945 -1.138649 2.6334913
0.9170947 -0.051029205 1.7675565
0.42539167 -1.0119524 0.76625276
0.4377656 -1.004591 0.8030366
0.43440008 -1.0110273 0.7734071
0.10021305 -1.2304335 2.4096766
0.10008812 -1.2328005 1.6465795
0.36558342 -1.1599007 1.7980758
1.0198088 0.16567993 0.2470994
0.96525717 -0.04643631 3.0225534
0.40158987 -1.1396027 1.8047454
0.107871056 -1.2420998 2.403072
0.8344922 -0.33058548 2.969489
0.3090248 -0.31728935 1.9042746
0.07778454 -1.0893135 0.86988974
0.06666565 -1.1092777 0.8336129
0.20307541 -1.0870647 2.6890655
0.16746902 -1.012804 0.65085745
0.15779972 -1.0301161 0.6309447
0.48495674 0.048273087 2.8061624
0.17887783 -1.1533108 1.8830116
0.17339993 -1.163641 1.7589443
0.24793243 -1.1793976 1.7517052
0.15236378 -1.2019501 1.7177389
0.2703638 -1.1526546 2.2032232
0.25862503 -1.1764965 1.8630047
-0.17963219 -1.9514904 2.0598578
0.24844074 -1.2135353 1.6118917
0.13666344 -1.0783768 1.9543607
0.14277458 -1.0726061 0.8555646
0.12704754 -1.1007452 0.82213783
2.6688724 3.1698933 2.4375875
1.1119413 0.6401596 2.2624173
0.7547684 -0.34178925 2.6547666
0.28189087 -1.1691895 1.9101772
0.83404493 -0.3305931 1.7509243
0.18409443 -1.1570654 1.8810859
-8.021082 -18.522923 1.2100707
0.17223835 -1.1789923 1.7081451
0.2971201 -0.9692259 2.5363977
-0.12183952 -1.4688272 2.7688234
0.10671139 -1.0719242 0.8607502
0.236907 -1.0939684 2.673739
0.4219203 -1.1331892 1.8194208
-7.9858694 -18.446043 1.2163699
0.5283809 -0.94736004 2.8194196
0.82215595 0.12475586 2.1998553
0.72235584 0.54743385 1.8094687
0.12217617 -1.1208162 1.9224534
0.14978313 -1.0768185 0.8641186
0.15827942 -1.072113 2.141381
-8.035551 -18.551983 1.2081394
1.1894178 0.74038124 2.0940363
1.6556597 1.472147 2.3184245
0.15460014 -1.0960369 1.9641204
0.18849754 -1.1655931 1.8497949
0.22570229 -1.1115856 2.6744788
0.13811398 -1.017149 0.64830923
0.304533 -0.9722767 2.5246732
1.0291843 0.45186043 1.257216
0.18552113 -1.18754 1.7567582
0.16814995 -1.0776186 0.86190987
0.16012955 -1.0920382 0.8241229
0.2344904 -1.1120491 2.689975
0.33959866 -1.0734406 1.5071006
0.2062087 -0.59654045 2.701088
1.6727524 1.4843254 2.3259184
0.20000076 -1.1799126 1.7592018
0.1086359 -1.0797348 2.0059218
-0.76264286 -2.9833212 1.5425062
1.6068306 1.3211231 2.192651
0.21901226 -1.1760063 1.8811026
0.12857914 -1.1557684 2.5116553
0.05364132 -1.58074 1.9459023
1.2394443 0.38953972 1.7295189
0.26258564 -1.1457748 2.207111
0.5868535 0.21394348 1.9098313
0.5556426 -0.92826176 2.8280404
0.38224936 -1.2736835 2.769972
0.1001482 -1.520999 3.020753
0.24397755 -1.1812925 1.702265
0.1707325 -0.9882126 1.6525874
0.14533138 -1.1443233 2.163752
0.31495953 -1.1514149 2.8763509
0.49780178 -0.017194748 1.9246285
0.11168289 -1.1070843 2.1470256
0.13800621 -1.0674343 0.8547993
0.61137486 0.22936821 1.910675
0.23252678 -1.201746 1.7047913
0.33937168 -1.0134964 0.6770992
0.24700356 -1.1911192 1.8675144
-0.007118702 -1.113224 1.7281995
0.35121155 -1.0083923 0.7072942
0.3180437 -1.0806818 1.5977163
0.7274685 0.46165466 2.7981448
0.019761086 -1.0723848 1.85355
0.51147795 -1.028121 2.392125
-0.0055356026 -1.1270962 1.6189159
0.16861057 -1.1168509 2.6491332
-0.009081364 -1.1347647 1.5824612
0.10823631 -1.2291908 1.6474566
0.029229164 -1.0692272 1.7588775
0.89624214 0.8086796 1.7774136
0.056970596 -1.008399 0.65915287
0.057041645 -1.008215 0.61556464
0.27038288 -1.1479053 2.2111056
0.16837597 -1.0147209 0.65169
0.15893555 -1.0315571 0.63160753
0.36075497 -1.0042896 1.5296648
0.27162647 -1.1787672 1.9118071
0.20906925 -1.077754 2.7052162
0.24933434 -1.1870432 1.8641665
0.247509 -1.2078152 1.6173832
0.06846142 -1.0368366 1.9872408
0.6814499 -0.44488907 1.6761267
0.1171999 -1.1150532 1.9617887
0.14536285 -1.0713444 0.863482
0.1307993 -1.0973167 0.8292718
0.83424616 0.616169 1.9992089
0.25949097 -1.1870575 1.5561845
1.1015062 0.6102276 2.1942415
0.27425766 -1.1750727 1.9086778
-0.35534573 -2.2829561 2.015192
0.49900913 -0.77194595 1.6928387
1.2853975 0.4884796 1.2174416
0.057296753 -1.0772514 0.84975153
0.057388783 -1.0770187 0.81350785
0.18169117 -1.1470356 1.9295468
0.09593439 -0.99376297 0.65807754
0.83167267 0.13269997 2.1331825
0.12395382 -1.1200714 1.9196367
0.15911865 -1.0733776 2.1342473
0.21590519 -1.0982723 2.7241082
0.18724918 -1.1539364 1.8806231
0.18228626 -1.1634293 1.7586904
0.30596542 -1.1186333 1.5557735
0.17401218 -1.178339 1.7044888
0.023439407 -1.6919689 1.053299
0.09341097 -1.0176296 1.724351
0.09257221 -1.0183268 0.6226125
0.14414406 -1.1175404 1.9675403
0.10414457 -1.0107841 0.65851784
0.8378296 -0.1813221 1.7280834
0.45692492 -1.1634607 1.8196961
0.104176044 -1.010685 0.62942845
0.8239975 -0.22563934 1.6773005
0.37656307 -1.0116873 0.7216625
0.38093853 -1.0107136 0.73234224
0.48226643 -0.90158653 2.3862958
0.18884182 -1.1675568 1.8747895
0.19127178 -1.1634426 1.8489056
0.26302433 -1.222022 2.8916101
1.0242224 0.43093872 1.1887488
0.26600456 -1.2155733 2.8983915
0.16959572 -1.0794067 0.86204815
0.16326427 -1.0907707 0.8312597
0.67982197 -0.5702915 1.5731711
0.3032751 -0.9786415 2.50907
0.12821007 -1.1589003 2.5090504
0.65707207 -0.3628521 1.5407586
0.24163532 -1.1020489 2.7062042
-0.2273922 -2.103691 1.9087877
0.3829975 -1.0163889 0.72990775
0.30358696 -1.1656132 2.883169
0.08228731 -1.076602 2.0079093
0.17792511 -1.4360628 2.960598
0.340477 -1.1681595 1.9278531
0.11961079 -1.0311852 2.0103827
0.11989021 -1.0305328 1.9663599
0.092841625 -1.0870943 0.8423542
0.104635715 -1.0804892 1.9276531
0.104528904 -1.0792179 0.8057723
0.1318245 -1.0205679 0.65842324
0.13560677 -1.0124369 0.6362667
0.1310935 -1.0220747 0.6148564
0.14230347 -1.1528702 2.1616702
0.20571136 -1.1713982 1.7577415
0.402483 -1.0138016 0.78398967
0.22276783 -1.1733513 1.8806322
0.781868 -0.41216087 1.5444508
0.17714596 -1.1048241 2.6608062
0.8449316 -0.30459404 1.45186
0.10225773 -1.238328 2.402369
0.12677479 -1.2002792 1.640203
1.0728889 -0.0140686035 1.7973528
0.26964855 -1.1379099 2.2083385
1.3319993 0.47623062 1.7430744
0.23823738 -1.1965246 1.701117
1.45888 0.66228676 1.7458972
1.1457114 0.053264618 2.9973145
0.34901524 -1.1209612 1.7904606
0.506742 -1.1502838 2.5492177
0.08572197 -1.578824 2.938247
0.18781757 -1.1186619 2.7291973
0.34193325 -1.1344576 1.594918
0.60515785 -0.027986526 2.5764732
0.09942675 -1.1092262 2.1605017
0.3475361 -1.1290216 1.5872221
0.57134247 -0.73581314 2.8920202
1.0024366 0.008874893 2.764963
1.1019821 0.3027668 0.29798985
1.2490277 0.24832344 2.5131352
0.3345499 -1.1620979 1.9378245
1.5911326 0.89292526 2.4816003
0.481699 -0.77968216 2.779629
0.311306 -1.1998367 2.8942382
0.5859246 -1.0328674 1.8383925
0.83943176 -0.26373863 1.620497
0.3367815 -1.1616621 1.933877
0.27122784 -1.1514778 2.2023172
0.37791443 -1.1307545 2.4522467
0.31522083 -1.5735645 2.4525428
0.17595673 -1.1451387 1.9273558
0.1805458 -1.1540089 1.8863115
0.7830725 -0.3826294 1.6282978
0.42647552 -1.0124578 0.76911163
0.18137264 -1.1692133 1.8811593
0.1775446 -1.1767864 1.7643366
0.16630268 -1.1968861 1.7108932
0.1931324 -1.1654902 1.8448462
1.0645561 0.9363556 1.7410009
0.25325012 -1.1854038 1.8631914
0.737998 -0.21432877 1.4599543
0.24911594 -1.2108145 1.6114259
0.2156229 -1.1360044 2.7128787
0.30448914 -0.98215485 2.5059943
0.2232542 -1.1390553 2.7210226
1.2875624 0.40639305 0.2255578
1.3308468 1.483757 2.68047
0.54867315 -1.1515846 2.481683
0.12847853 -1.0813799 1.9719354
0.12875271 -1.0790739 0.8490438
0.12733841 -1.082036 0.81283665
0.17544031 -0.97913265 0.6563887
1.0661011 0.122888565 1.6125205
0.4319296 -1.0099983 0.772784
0.2269535 -1.2497711 1.5720935
0.24516487 -1.4265156 1.0139198
0.27849007 -1.1736088 1.9080205
0.34363556 -1.1753454 2.4722633
0.4407568 -1.0103455 0.80423
1.4421406 0.9855709 2.0298424
0.20999622 -1.1698656 1.7585883
1.0778828 0.11531067 1.5340054
0.22223377 -1.1806793 1.8786778
0.23573112 -1.1917782 1.7007279
0.948596 -0.11071396 1.5370648
0.43253136 -1.0179806 0.80273485
1.4808035 0.8244934 1.4626162
0.5402956 -0.71928024 1.6666231
0.43549633 -1.0129757 0.7765174
0.4427805 -1.0163507 0.8095741
0.5228429 -1.2321634 2.825667
0.34971142 -1.1834431 2.4670205
0.5236592 -1.2305956 2.780685
0.6412616 -1.025918 1.8529178
0.8584175 -0.30204773 1.5750852
0.5923443 -0.58085823 0.56225824
0.5668535 -0.900074 1.7028437
1.185422 0.2256546 0.5831857
0.26718998 -1.1491566 2.2054906
0.3412037 -1.0657701 1.7222943
0.596972 -1.1415529 2.8371916
1.4941616 0.7586918 1.4960642
0.084216595 -1.2107983 2.4101617
0.8088217 -0.2688141 1.6374674
0.13016033 -1.1125584 2.1683362
0.38768005 -1.0091152 0.7313242
0.6882887 -0.6546993 0.7604723
0.65023756 -1.0413704 1.898702
0.9452677 -0.23516846 1.634393
0.6147437 -1.1396065 2.0214534
0.6196022 -0.6058159 2.7858055
0.5418706 -0.23499298 1.6710932
0.7556915 -0.5640068 1.6759095
2.3335295 2.2258625 2.0137744
0.24941444 -1.1840286 1.7568555
0.3092661 -1.1608782 2.8808923
0.40390968 -1.0136156 0.7901125
0.8879137 -0.17385101 2.7379944
1.4384403 0.6194477 1.415663
0.5586834 -0.27184105 1.739832
0.49567604 -0.7802601 2.7800865
-0.22639656 -2.0402155 2.0489674
0.7372308 0.08808327 1.7976243
0.25551796 -1.479516 1.8903751
0.38682175 -1.2754679 2.8091688
0.24769402 -1.221385 1.6123214
0.33769608 -1.066103 1.5114584
0.2819805 -1.1756306 1.9126468
2.1269808 1.7995853 1.8923712
0.4238205 -0.5935087 1.9045665
-3.1442208 -8.203263 2.3594892
0.5528517 -1.0102482 2.7412572
0.78348064 -0.30897713 1.6020603
0.5580435 -0.30933762 1.7773898
0.46952152 -0.9191246 2.4184542
1.1129789 0.033943176 1.602849
0.38037872 -1.2822056 2.8138664
-3.199751 -8.305721 2.345708
-0.75861454 -2.984146 1.4627471
0.3557043 -1.1235895 1.5816779
0.71200037 -1.1186934 2.0586324
0.70734024 -0.012119293 1.8887227
0.65565634 -1.2545996 2.691592
0.84678555 -0.2790203 2.7645805
0.26584053 -0.9637394 2.593884
0.048503876 -1.5964012 1.9282513
0.75140333 -1.0783424 2.407919
0.38680458 -1.0748968 2.8707573
0.83836937 -0.23806763 2.7021186
1.5433807 0.74250793 2.2289882
0.3406887 -1.1628914 1.9327519
1.8307295 2.3172665 2.8936348
0.30850983 -1.1532564 2.8820024
0.7338462 -1.1105919 2.3923535
1.055481 -0.11458397 2.2712805
0.17770576 -1.1649456 1.758146
0.6539335 -0.82214355 1.9151917
1.5846586 0.7992859 2.5933943
0.8828888 -0.2268982 1.5600286
0.6354747 -1.2913456 2.3678713
0.8499985 -0.28420067 1.5219626
0.5312338 -1.0580044 1.9786305
1.4646893 0.61152077 1.4146857
0.38039875 -1.2702246 2.8103073
0.9026942 -0.81578827 1.7614462
0.9196205 -0.40096092 1.7146692
0.12081051 -1.5522785 0.9488559
1.1207867 0.7843857 1.927407
0.39913177 -1.287734 2.7677875
0.597476 -0.72677803 2.8382647
1.6127849 0.46928978 2.7363825
1.1353626 0.7958412 1.9362133
0.24526262 -1.1247969 1.7014985
0.5496435 -1.0098171 2.7805288
0.24150276 -1.1524324 2.748949
0.25125647 -1.1305952 2.2141633
1.3699837 0.63092804 1.2393141
0.4414072 -1.0146799 0.81109476
1.4455843 0.5313759 2.1544075
0.5154228 -1.0752668 2.004273
0.38423443 -1.0716877 2.8600404
0.558671 -1.0303955 1.8177934
-2.1402106 -5.651909 2.8355374
0.7259693 -0.1369133 1.9475148
0.397048 -1.2889881 2.771635
0.9025402 -0.44929123 1.5827265
0.74793196 -1.1319237 2.0813382
0.83304405 -0.52492523 1.7337222
0.3519907 -1.1709766 2.4698112
0.33643055 -1.1637049 1.928812
0.7279773 -0.1506691 1.9081078
0.307765 -1.0252714 0.6778262
0.6874285 -0.56152534 1.5916858
-4.4329147 -10.938576 1.4602697
1.362504 0.54766846 1.3121853
0.2740593 -1.1152287 1.6142056
1.6752868 0.5495472 2.0404499
0.55165386 -1.0567188 1.9754968
0.09992981 -1.5813551 0.9933138
0.34322643 -0.9707775 1.5805047
0.3267212 -1.0026598 0.66950977
0.9433589 -0.7897167 1.7758719
0.95166016 -0.40036392 1.5998487
0.26542473 -1.1510143 1.9131198
-4.4410596 -10.961557 1.4569288
0.3844061 -1.3582563 1.9008994
0.97325325 -0.18338203 0.5872512
0.84416866 -0.4129238 1.6090817
1.2573471 0.108306885 2.1211214
1.198391 0.09890747 1.6670821
0.89708996 -0.42931366 1.6942582
0.52867126 -0.60179615 1.7695054
0.7712078 -0.43434906 1.5785131
0.49414635 -1.1293077 1.8431323
0.899168 -0.43247795 1.6603067
1.2051172 0.07646179 1.660655
0.7828207 -0.41485977 1.5278254
0.848217 -0.42307472 1.593174
1.2048149 0.07573509 1.6265981
0.5208788 -1.1662903 2.5547104
0.30438232 -1.0688133 1.5712792
1.2571249 0.15449333 2.3671322
0.53582096 -1.1189756 2.9471762
0.51200294 -1.1628971 2.5583205
0.54574776 -1.158001 2.497901
0.5592127 -1.1518917 2.4861727
0.9592767 -0.80901814 1.7838752
0.5600023 -1.1670609 2.480875
1.2458229 0.87360764 1.948567
1.3228893 0.25216866 2.3480177
-0.0043153763 -2.0647974 2.5449264
0.5852232 -1.1251926 2.442121
0.65138435 -1.0228481 1.8824992
2.572957 2.5211773 1.5813909
0.5679102 -1.0695658 1.8349526
-0.23288679 -2.2208014 1.7392004
0.34959364 -1.0231056 0.7356584
0.3629074 -1.1616459 2.4673843
0.54151726 -1.1746922 2.5030003
0.36346197 -0.99419785 0.705327
1.2627411 0.14807129 2.2932174
-0.6944947 -3.217186 2.2332878
0.5406313 -1.1193638 2.9453464
0.86935186 -1.0528822 2.164314
0.5174742 -1.1625366 2.557867
0.3018551 -1.5915909 2.5079842
0.28421593 -1.3624048 0.97420835
0.5153332 -1.1667767 2.4941409
1.5041723 0.40579605 1.3621984
0.18288708 -1.7366982 2.5467668
0.63343716 -1.0190239 1.825429
0.36886787 -0.9999523 0.71275383
0.3855152 -1.270154 2.8092973
1.3386812 0.12797928 1.4279509
-3.7743547 -9.609277 1.5061438
0.5697794 -1.1413879 2.483396
0.6476364 -1.0259943 1.8493459
0.65029144 -1.0215435 1.8247137
0.302186 -1.1580057 1.6136582
0.7493429 -0.5914612 1.6084995
0.12078571 -1.9638491 2.8819025
0.5753155 -1.0697145 1.8354595
0.55219173 -1.223669 2.8127847
0.42130375 -1.1594744 2.460618
0.5468416 -1.1759768 2.5012424
0.8677993 -1.071538 2.2025158
1.4927349 0.4377098 2.1984909
1.5076866 1.3209743 1.8390955
0.34143686 -1.1114664 1.9377186
0.55189705 -1.1832638 2.485695
0.65017414 -1.0217323 1.8219471
0.66655445 -1.0246372 1.8960545
0.6580696 -1.0240269 1.8462763
0.55039215 -1.2357073 2.7815552
0.541625 -1.2290325 2.8204963
0.64407825 -0.48534393 1.919076
1.5903726 0.20459747 2.159416
0.554019 -1.0144596 2.7665293
0.361753 -1.1027584 1.8060467
1.1606903 -0.21276093 2.7426996
1.3184605 0.3256836 1.3255792
1.0864162 0.39299774 1.8097761
0.41565895 -1.0216618 0.76406217
0.6839051 -0.4904871 1.8277178
0.43453074 -0.9997978 0.7999439
0.4023633 -1.1200562 1.8134297
0.7731128 -1.3059139 2.5788858
0.66780853 -1.0229483 1.894563
0.5206566 -1.2807856 2.7793808
0.38670063 -1.2790174 2.8136778
0.6500797 -1.10005 1.9767742
0.86253595 -1.2216568 1.9378065
0.6375017 -1.0948277 2.921783
0.5254116 -1.28547 2.7778864
1.1496286 -0.26089668 2.6909714
2.6432085 3.449461 2.7318382
1.2779474 0.6565304 1.8353698
0.83868647 -1.2644796 1.9159738
0.4788251 -1.0016785 2.9861712
1.0446863 0.15572739 3.075088
1.4206982 0.45892715 2.0737786
0.81278086 -1.3726912 1.9628851
0.8826041 -1.2786522 1.9611461
0.5206232 -1.0796995 1.9989765
0.42416906 -1.1256618 1.8209052
0.36893177 -1.2591419 2.8111591
0.8841176 -1.2759209 1.9384501
-1.2035313 -4.018367 2.6699305
0.5643225 -1.0106983 2.9797945
0.6417217 -1.2212334 2.376557
1.2709513 -0.14171791 2.5619707
0.8617115 -0.836092 2.8517241
0.5734234 -0.99572945 2.9275756
0.40255547 -1.2890797 2.770049
1.5994282 0.3870697 2.469283
0.6620827 -1.1779671 2.3663588
1.8851485 0.4081707 2.3599632
1.014082 0.05860138 2.650206
1.368072 -0.5259323 2.4636133
1.2182789 0.089925766 1.5347905
0.90698814 -0.44043732 1.6252294
-0.39062595 -2.927472 2.6912498
1.7794557 0.20360374 2.4164565
0.6558151 -1.1967459 2.3674324
1.0794969 -1.068819 2.4632325
0.4841442 -1.0197582 1.780406
0.37249184 -1.2683086 2.7664943
0.531682 -1.0588226 1.9845309
0.72380686 -1.7131538 2.445925
1.700057 0.50914764 2.5301094
0.55159855 -1.0593815 1.9837768
-1.136651 -3.8885431 2.768557
0.5236912 -1.1168909 2.5449927
0.39901447 -1.2907219 2.772975
1.3898602 -0.02259636 2.2398324
0.6978359 -1.1408939 2.4303653
1.4644675 -0.4361725 2.4332545
2.0808187 0.5479641 2.5143404
2.1419482 0.5694256 2.4979963
2.1495595 0.56563187 2.4894812
1.2255478 0.06759834 1.5383067
1.7161531 0.531332 1.8348229
1.4175549 0.3934765 1.4283605
0.6827955 -1.241724 2.683144
0.45527935 -1.1146784 2.389598
1.2159443 0.081905365 1.4869905
1.268033 0.13032913 2.2306123
0.57900524 -1.0505571 2.9265196
1.5695915 0.25002098 1.6129589
0.9051533 -0.44512367 1.5999432
1.7064342 0.47667313 2.5046926
0.5248642 -1.1475477 2.4919732
0.5519924 -1.0571918 1.9817371
1.5307255 0.18550873 2.528369
1.7118168 0.49903107 2.4355276
1.2485781 -0.28227425 1.9753983
1.3910551 -0.04244423 2.1778042
-1.3839412 0.62690353 2.2776265
1.3296337 0.23862076 1.409503
1.721283 0.49752998 2.4261973
1.7246075 0.52853966 1.8434541
0.84344864 -0.975543 2.3754334
0.64376736 -1.2891731 2.3946204
1.2637053 0.11923599 2.1708603
-1.3367643 0.659729 2.3152854
0.57584286 -1.0683708 1.8320627
1.6259317 0.34388542 1.9369028
0.52208805 -1.1675568 2.5531273
1.735589 0.5139675 1.7593927
-1.2100596 0.41781235 2.4181957
1.5479565 0.19735909 1.6669111
1.7330532 0.52573395 1.8520877
0.8234482 -1.0211687 2.7007973
0.54981995 -1.1690207 2.501488
-1.1541276 0.4500599 2.4398754
0.5546856 -1.176919 2.4858277
0.6676178 -1.2598906 2.6954045
1.7310858 0.49648666 2.407862
0.5213661 -1.1666079 2.5609508
0.30103493 -1.6052723 2.5529568
-1.1163635 0.50037766 2.469396
0.8469944 -0.96912956 2.3557243
0.65143585 -1.0212164 1.8236074
-1.1351004 0.45480537 2.4233794
0.4927559 -1.0861835 1.8229814
0.657609 -1.0266504 1.8492861
0.6700773 -1.0211658 1.897522
0.49973297 -1.0718908 1.7939578
1.6543713 0.36164284 1.8586128
