ply
format ascii 1.0
element vertex 1526
property float x
property float y
property float z
end_header
0.6402588 0.35141838 1.9190394
0.71819115 0.37562108 2.435829
0.9502249 -0.2897973 2.5822043
0.18514252 0.11851132 1.7455865
1.3152428 0.18859375 1.7002915
0.2919941 0.13119638 3.0915186
1.4262877 0.201244 2.8041546
3.380453 0.5790019 1.4930308
1.6025066 -0.13955188 2.0853047
0.287405 0.13801932 3.1199005
-0.47355843 -0.87071085 2.4851222
2.2029448 0.28618908 2.5614343
1.0534029 -0.29298162 2.5421057
0.28539085 0.13790822 3.1056502
-0.0041980743 -0.47299862 2.3605065
1.0037432 -0.22783661 2.5995317
-0.56843567 0.101032495 2.7637734
1.399086 0.21952718 2.8032475
1.7699604 0.4448824 2.1642833
0.6496811 0.35069442 1.8771908
0.59747314 0.36131656 2.4562676
1.5425024 0.22847247 2.459088
2.6206102 0.5705333 1.471597
-0.14247513 0.42340136 2.3669305
1.7571087 0.44966936 2.1203315
1.314476 0.30134213 2.4177232
-0.19772148 -0.89660215 2.4460897
2.8248253 0.17561829 1.9232798
0.0024776459 -0.68202543 2.7744942
1.2403774 0.31348026 3.020044
1.8256302 0.0056114197 2.1143084
1.3256989 0.30632794 3.001158
-0.46554184 -0.8509984 2.4859824
1.5971766 0.28350246 2.9860446
1.0033779 0.33352578 2.9539948
0.8926468 -0.3165431 2.579622
1.4139643 0.2996348 2.5109446
1.1829996 -0.16518164 2.2771478
1.5765553 0.040831566 2.2875004
0.1908989 -0.405828 2.5118499
0.3873949 -0.52211714 1.9767237
2.8907452 0.74922276 1.4603145
0.74800014 -0.27178407 2.585806
2.1386404 0.26481694 1.9732094
1.2076149 -0.08597946 2.2821865
1.5012293 0.20963621 1.6953608
0.7719078 -0.26093674 2.392355
1.4437742 0.22303182 1.8877238
1.5465164 0.20592546 2.4341617
0.036052704 0.14463568 2.8274846
0.73128986 -0.28192425 2.3659554
0.71669674 0.1855399 2.6125205
1.299427 -0.13988566 2.2697835
1.1183996 0.2096656 2.5021577
-0.21949768 -0.77270174 2.077946
-0.7884865 -0.57322574 2.8645606
0.11784172 -0.5908742 2.3588884
0.6118345 -0.25171685 2.9394941
1.0651073 -0.22788858 2.5938694
0.40092278 -0.2769549 2.9544375
-0.8504219 0.09251952 1.8372624
-1.2205143 -0.6138065 2.69303
1.1981344 -0.07901621 2.2837763
-0.64785194 -0.9745374 2.447719
2.9847393 0.321643 2.1128905
0.8063135 -0.15818572 2.9320064
1.3743458 0.22549051 1.934711
-1.2730503 -0.6173234 2.7224908
-1.3046513 -0.6243131 2.6974666
0.7806511 -0.14960885 2.826536
0.70425797 0.36030865 1.881835
1.1017704 0.20942247 1.6777346
1.5115633 0.01765585 2.3078995
-0.074121475 0.14577007 2.3647447
0.1652298 -0.27025175 2.3664849
0.9793377 0.34314358 2.5240571
0.25893974 0.41039884 3.1411333
-0.90042686 0.50922596 2.9847627
2.963252 0.32633024 2.128993
1.323103 0.2549007 1.6425527
0.6410942 0.37818146 2.9607203
2.4147835 0.29388708 1.9993223
1.0561686 0.34290552 2.9481719
1.2244787 0.28833747 2.9884837
-0.33582306 -0.74425364 2.4568706
1.1298866 -0.019026756 1.863996
0.6929884 0.19182932 1.816085
-0.8802719 -0.48328114 2.4914312
0.19390869 0.418337 1.5817553
-0.05045128 0.44527578 2.386549
-0.08923149 0.44866312 2.3400626
0.3880396 -0.38881826 2.9089978
1.8276157 0.28557134 1.866602
2.5053816 0.22757256 1.911258
1.9290581 0.27694774 1.836795
0.77256393 -0.12294865 2.4066243
-0.64155006 0.11292517 1.4609927
0.8635006 0.36822617 1.7059823
1.4281616 0.24119902 2.7976978
0.8963108 0.36544967 1.6881766
1.0130615 0.33540297 1.9198829
0.18064499 0.42675233 1.6023391
0.592371 0.396253 3.1438656
1.6164656 0.25482607 2.5063627
0.5997715 -0.14608479 2.614874
0.22627068 -0.52654076 2.1801126
1.3477106 0.33238626 2.5008087
0.42764091 -0.4431796 2.3903964
1.6740198 0.30534208 1.8788201
-0.2571354 -0.62494135 2.1556878
-0.10227203 -0.6227784 1.9736836
0.37649345 0.423043 2.4954038
1.4626713 0.3293717 2.4257913
0.618063 -0.27841377 2.9238772
1.7327042 0.3071103 1.7713048
1.721014 0.14012814 2.3335357
-0.9718647 -0.83651924 2.6815448
2.2744417 0.06461167 1.8634746
-1.3821888 -0.5601349 2.70286
0.45000744 -0.34125662 1.7249279
1.754075 0.15955496 2.4787574
0.38387108 -0.17856526 1.6761009
-0.657423 0.5195359 2.7674105
0.25683975 -0.198627 1.6696209
0.053380966 -0.22744083 2.1621304
-0.28022957 0.48685896 2.7335458
-0.6161747 -0.6987109 2.0948677
1.8481464 0.16480613 1.9616345
-0.45908356 0.5024384 2.697661
1.4874382 0.333897 2.4674568
0.15812683 -0.19006991 2.1705103
-0.73138046 0.534744 2.104436
0.20326424 0.45880282 3.1334095
0.5395851 0.19548279 3.1723564
0.6464443 0.9023242 2.546639
1.2549229 0.28384042 1.6779193
0.7226448 0.4133296 3.1027904
1.1749411 0.30109525 1.6274422
0.8071804 -0.17083073 2.917944
-0.66747665 0.5357392 2.7670937
-0.65574455 -0.704442 2.4779859
0.8020382 0.40692067 2.7748485
-0.24623108 -0.6867957 2.353108
0.82452106 -0.14160061 1.8270063
1.5200176 0.3439734 2.783926
1.777381 0.18242025 2.4808588
1.6911736 0.32900643 2.7629619
0.41117668 -0.29195547 2.592043
0.7191963 0.41164994 3.0172434
1.242466 0.69136524 2.5235558
1.674468 0.33102775 2.4307983
0.7307434 0.40919447 2.9956255
0.70814705 0.4141028 2.9735136
0.32526207 -0.1470108 1.677899
1.2466536 0.2510506 2.40836
1.1460485 0.32183528 1.6171647
0.5846977 0.432487 3.1296234
0.21165848 -0.3488369 2.1688132
0.7308254 0.41666842 2.9520702
2.113327 0.538671 1.9843298
0.17580795 -0.34591532 2.166104
0.6199627 -0.22029972 1.7564406
0.5248432 0.4920137 2.5069668
-0.06503296 -0.54990816 2.4099874
0.54574394 0.45149112 2.3749843
-0.3422222 -0.68129206 2.540511
0.93129253 0.4240589 2.4380555
0.38479805 -0.12691283 2.2673664
1.0409164 0.093459606 2.4461696
0.8570881 0.02625084 2.3860843
0.6745529 -0.056492805 2.5816226
0.941267 -0.061979294 2.1404796
-0.6354866 -0.710835 2.3008528
-0.7403126 -0.74481344 2.23455
1.6893358 0.505321 2.4988027
1.4701614 0.3966856 2.436568
1.4393864 0.39741325 2.4774327
0.3745041 -0.26661253 1.7012802
2.087428 0.23579168 1.9411032
1.8563786 0.28237152 2.3878531
-0.5301075 -0.5765939 2.2559054
-0.20274734 -0.24448657 2.4403157
0.15478325 0.5093734 1.7386504
-0.63100433 -0.59010744 2.4361491
2.2341728 0.33343542 2.3210442
1.7410774 0.24067259 1.9648107
-0.077941895 0.18204618 2.371986
2.4361906 0.32634437 1.9080689
1.7095928 0.38138437 2.2469747
-0.34387016 0.5751306 2.7538962
0.71261406 0.91074705 2.4950354
1.370822 0.26556087 1.7604754
1.7404051 0.28667462 1.7856125
-0.09689522 -0.41192818 2.432455
3.1956825 -0.083024025 2.1147938
1.1198092 0.25128794 1.6799953
-0.8069744 -0.37296295 1.9877912
1.1273518 0.02764225 2.306747
2.304143 0.111822605 2.0238345
-0.25206757 -0.3236413 2.1734262
2.0483541 0.16775107 1.9829305
0.604126 0.4883926 2.7118127
1.3967237 0.6598592 1.8297176
0.88739014 0.4641509 1.8059775
1.6973066 0.16614556 1.7285941
0.82284355 0.44871783 2.8162093
0.9810314 0.8204155 2.2034883
0.6753607 -0.12700415 2.2617745
1.3182573 0.7124462 1.8300971
1.0325565 0.4027977 2.7786639
1.0692272 0.44754505 1.7811273
0.2570877 0.526667 3.119389
1.7752199 0.55050516 1.9036256
1.9266081 0.2136445 2.7764714
1.75 0.56661606 2.247503
-1.0378666 0.6459061 3.0758998
0.24182415 -0.06567526 2.198833
0.31167603 0.5768087 2.4003634
-0.33895493 0.58973193 2.7540207
0.5165081 0.53175545 2.3735173
-0.5746708 -0.4447894 2.0783348
0.13941765 0.54556143 2.7248077
1.4763622 0.32162428 1.6980875
1.20154 0.4473505 2.7325613
0.9757166 0.31587172 2.2647543
1.2987862 0.09543991 1.9003458
0.6582737 0.4979664 2.5297434
0.7858858 0.23212957 2.223851
1.6439352 0.2898183 2.768057
1.2151918 0.3848405 2.5365202
0.61816883 0.16731262 2.6753101
1.3101339 0.5020294 2.2338064
2.7930593 0.4173088 1.9662067
0.5324755 0.1424861 2.919145
0.36682034 0.07125521 2.681274
0.8502531 0.007824421 1.6660817
1.9618664 0.24212265 1.7596774
0.6370621 -0.029972553 2.6390822
1.3093548 0.7770057 2.4953766
0.45211983 0.5609212 2.4589844
0.6127739 0.50813675 3.1227682
0.103256226 -0.30852747 1.6335794
-0.92212677 -0.6659298 2.535193
-1.2493305 0.6812016 3.073509
1.9771824 0.53417015 2.5651045
1.9681082 0.54525614 2.5220814
0.5793686 0.18179178 2.9145322
0.34777355 0.08750439 2.6730137
-0.12486839 0.5768131 3.0418017
0.6238251 0.508348 2.4855716
1.1495104 0.46687663 2.243176
1.7828836 0.29857445 1.7881099
1.713624 0.28299952 1.9203702
0.20090866 0.6229391 3.1079085
2.1439762 0.37400234 2.276377
1.2029257 0.4626397 1.8623731
1.8349466 0.60371256 2.236995
1.1236105 0.47013736 1.8137686
0.048908234 0.6579604 2.3872676
-0.7412319 0.83355 2.1021495
0.6230736 0.5226438 2.4854972
0.2620144 0.21492529 3.1623433
1.7524033 0.63571215 1.9001255
0.6557255 0.5265926 2.5295548
-3.172285 2.507903 2.0082655
0.7942219 0.24511892 2.968354
1.9486494 0.24593782 2.0184984
-1.1940594 0.1331861 2.9059913
0.6237354 0.52968025 2.4926064
1.6668949 0.18668294 1.9511961
1.5670567 0.2892059 2.4673696
0.2562008 0.6209271 1.7364211
0.65199566 0.341774 2.2699485
1.7145729 0.427431 2.240509
1.0058479 0.49498773 1.8445076
-0.11820412 0.011163235 2.8407488
-0.47203445 -0.26316953 1.7135456
-0.48132324 0.64032745 3.0066247
-0.28527832 0.6220113 2.8901594
0.29770088 0.20707846 2.8415594
0.23738098 0.5725986 2.865729
-0.17096138 0.6182128 3.1004589
1.1653547 0.6165743 2.3280272
-0.5480652 0.6541817 3.0434837
-0.51330185 0.8002362 1.5029956
1.1557693 0.6201167 2.283874
0.042751312 0.60566986 2.8975477
1.569705 0.72002316 1.885124
-0.98719406 0.15246326 2.957071
0.22533798 0.641968 2.3581672
-1.3609772 -0.5558257 2.9471374
-0.11492157 0.62081313 2.8569875
-0.37081337 0.6522088 3.1358771
-0.19807434 0.63571 3.1001687
-0.18802643 0.6348547 3.0483108
0.4347744 -0.07244849 1.7627945
0.8865471 0.9779115 1.7921382
0.06552315 0.6791191 1.5670605
0.20054817 0.6537268 3.1078694
1.9544754 0.5958986 2.499682
-0.13484192 0.020430565 2.965502
1.4893131 0.14934635 1.7857481
0.5271244 0.5820384 2.4621317
-0.21389008 0.6543015 2.1009388
0.8165035 0.007846594 1.6694334
0.44636154 0.60017204 2.4139369
-0.97465515 -0.3737464 2.6274552
0.28505325 -0.09654832 1.6022933
0.55335236 0.36919641 2.6772869
1.9193621 0.26627636 2.0226681
-0.88944626 0.8991618 2.1004875
1.2212105 0.8753829 1.8566278
2.0193386 0.2498486 1.8851452
1.983057 0.6084032 2.2945297
1.4446821 0.16734314 1.7814369
-0.35985947 -0.05034542 2.9868135
0.95295906 0.071748495 2.3721514
-0.0041122437 0.11654711 2.731875
0.93692875 0.57141757 1.8379408
0.42778587 0.6218009 1.7486643
0.7889652 0.037633657 2.339908
0.85586643 0.028728008 1.8344126
1.3092422 0.14597201 1.9363118
0.07384491 0.16111517 2.9766302
2.23104 0.20260215 1.8640821
0.48257923 0.3525858 2.7256024
0.41683865 0.33019686 2.7290225
2.9453764 0.25066042 1.994478
0.19187927 0.6500255 2.7918031
1.1466179 0.6954694 2.3440895
0.11022568 0.22899008 2.9948096
1.2724266 0.4169805 1.7339174
1.877408 0.66321373 2.495991
0.71703815 0.022779942 1.8212506
1.3976974 0.38900328 1.7316767
-0.9655323 0.16131788 2.9805286
0.13633347 0.25105524 2.2569613
0.112104416 0.6812928 3.0620356
0.5846863 -0.059185505 2.1765664
1.2697058 0.1377933 1.7146283
0.9214134 -1.0427256 2.4182072
1.4100046 -0.67814064 2.5168908
0.77466106 0.048793316 2.7930274
0.49920654 0.45133448 2.7742205
0.032909393 -0.25357962 2.006479
1.0803928 0.46506715 2.8081136
-0.1163826 0.6872916 3.093592
1.0186834 0.099457026 2.3768654
0.6443691 -0.03046608 2.4723413
0.62665653 -1.2159996 2.389246
-2.7290726 0.94737566 2.971451
0.6197386 -0.039171696 1.8082876
0.60070324 -0.045871258 1.762292
0.052280426 -0.10059428 1.819409
1.1185608 0.45660615 2.7664948
1.1955261 -0.7945366 2.4968987
-0.8094864 0.7564763 2.978334
0.38802624 -0.10506868 1.7382512
1.4610357 -0.5845232 2.3447022
-1.3344975 -0.39363527 2.1112304
0.71131325 0.03592944 1.8280119
0.40771008 -0.09036684 1.7777807
0.88029194 0.09024334 2.6039345
0.12789154 0.29686022 2.7664504
1.4155016 -0.6070881 2.4577155
0.55153084 0.0097785 2.8121758
1.2872057 0.23241043 2.5186243
1.9796515 0.32577235 2.0165863
0.74191856 0.54098606 2.7266235
1.6409883 0.23514843 2.2411935
1.2932682 0.2345314 2.4843369
-0.25441742 0.76590776 1.7528502
-0.19705582 0.7582822 3.097442
1.6568766 -0.42315102 2.5837784
1.3358469 0.41723084 1.7185093
1.8532667 -0.27300453 2.5047183
1.2005796 -0.7318907 2.5873778
1.0893421 0.57494414 2.8110342
0.19888783 -1.4518785 2.44972
1.3611536 0.18433571 1.7188632
0.21799088 0.673604 2.733118
0.4267063 -0.008355141 1.5765854
1.1589041 0.46213746 2.7392328
1.3323946 -0.6186962 2.4511871
0.09761143 -1.4826355 2.4842286
0.58978844 0.03206539 2.8490438
0.46984673 -1.2163668 2.4779673
-0.032569885 0.6878016 2.4606512
-0.10716438 0.74737334 2.3868008
0.33852386 0.24063152 3.078182
0.5131893 0.023483276 2.9665823
1.8660583 0.30380058 2.4489288
-0.11608505 0.75577545 3.098015
1.2399874 0.5606555 2.481165
1.0073681 -0.78452206 2.1144304
0.48703003 0.6211376 2.5192108
-0.11603165 0.7714224 3.0979958
0.3506384 -0.03246212 2.4022126
0.28391075 0.68165636 2.7797759
0.48256302 0.64364696 3.0949974
1.4894142 0.42406726 2.4224863
1.2484627 -0.5839138 2.098742
-0.23818207 -0.13056278 2.2983384
-0.95002747 0.17751193 2.9732208
0.5599823 0.6423826 2.5220299
0.46837807 0.021516085 2.9865792
0.35969925 -1.2052002 2.0354428
0.29706764 0.008679867 2.3352842
1.429038 0.44468665 2.5310185
-2.245741 1.2970109 3.073746
-0.41750526 0.20738149 2.3078055
0.9657545 0.20995665 2.3987217
2.1382685 0.34729356 1.9864844
1.7393866 0.5114788 2.175634
0.27140808 -1.2473335 2.0255146
-0.5146408 0.2097854 2.1295202
1.831316 -0.14176369 2.1828542
1.0108204 0.23286676 2.4447498
0.77318573 0.105679035 2.157928
0.8548145 0.6006359 1.8233935
0.5083809 0.06814098 2.538826
1.608676 0.27585983 1.914193
1.3998146 0.54616725 1.8389243
0.91605186 0.1415844 2.6128664
-0.1434555 0.7048631 3.0932899
-0.3383808 0.2267412 2.1345775
0.8616352 -0.7975054 2.4898438
-1.274374 -0.34749746 2.126019
-0.7565098 -0.3401556 2.3143332
-0.092941284 -1.4532986 1.9396703
-0.50575256 0.74137366 3.0212913
0.56493664 0.12551737 2.9199324
0.77237797 0.11265087 2.1299767
0.8476629 -0.777812 2.4897516
-0.4351883 0.7343451 2.9997263
-0.7230911 -0.31217003 2.2700644
1.0997763 0.18590522 2.5270383
1.7864094 -0.116363525 2.5374851
-0.33263206 0.7240882 2.9863899
-0.7170048 -0.08328819 2.7381291
-1.9588661 1.2422752 2.1175647
2.2830286 0.27114415 2.3308759
0.743927 0.1939292 2.9489877
0.27521038 0.37308693 2.7606401
0.24458694 0.66666627 2.7788043
0.102062225 -1.3051186 2.0162551
1.1155243 0.54532456 2.4528253
1.0469122 -0.6271286 2.6295524
0.52167034 0.12608051 2.9545555
0.004682541 -0.03559494 1.7499896
1.4334917 0.26018882 2.8007631
-0.2523899 -0.12042904 2.9544377
0.57470036 -0.94958496 2.5950603
0.5897865 0.096782684 2.7931805
0.8547306 -0.7538996 2.3215666
2.4117584 0.45056903 2.2182307
1.8768024 0.35696173 1.89658
0.67930126 0.12914443 2.7619145
1.4921999 -0.2853241 2.6790686
-0.06027031 0.7071761 1.7031059
0.269022 -1.1364231 2.0061965
0.4748249 -0.97849274 2.851625
-0.46516228 -1.6300011 1.9673622
0.2574911 -1.1240807 2.0058806
0.986928 -0.60124683 2.6348047
0.8048248 0.62615156 2.0934324
1.3083563 -0.36672115 2.7033427
1.1744127 -0.4528618 2.1708608
0.09276962 0.70400834 2.7449455
1.2921991 0.5827559 2.4769409
-0.17040634 0.737394 3.085563
0.32779503 -1.0213985 2.7015138
-0.32299423 0.7531158 3.0239623
-0.27593422 0.7483649 3.0022566
0.97396755 0.32353646 2.9454482
-0.22415352 0.743114 2.9881983
1.0262938 0.3277287 1.8487748
0.23539162 -1.0876455 2.224528
-0.1618576 0.73682487 2.959578
1.2370186 0.33871102 1.8283682
0.42001724 0.13842678 2.2276382
0.59972954 0.3107853 3.1521761
0.047958374 0.7154542 2.9415095
-2.0933018 0.9345155 2.725167
-0.9137268 0.24065965 2.9664464
0.7468958 0.17898774 1.8204151
1.4594727 0.36227024 2.7528443
0.32364655 0.68845093 2.4705386
-0.17035675 0.7448603 3.0781412
-0.050714493 -0.0039377213 2.15027
0.7500515 0.3326471 2.9536507
0.59720516 0.22017574 2.9079785
1.0206013 0.3463791 2.9398713
0.87983894 0.31547546 2.2602649
0.7126255 0.1790402 2.175463
0.11292839 0.31474495 3.0119224
0.5605068 0.21547651 2.9281697
0.7425318 0.3325305 2.7666273
0.095869064 0.30805016 2.5262587
0.5749903 0.22034931 2.899915
1.2212038 0.56431794 2.5637243
-0.36232567 0.28364557 2.9708664
0.6875496 0.33639866 2.9729533
2.5445194 0.2639103 2.5733237
0.09637928 -1.172472 2.6743586
-0.9512348 0.833459 2.7661762
0.41373253 0.32290226 2.790092
0.79233646 0.2932377 2.6956847
0.8154106 0.65229106 2.4874659
-0.19730759 0.76255476 3.0778165
-1.7938557 -0.53193235 2.9396858
1.3613815 0.37058038 2.7490814
-0.7118778 0.88534474 2.941556
0.1375122 0.3513136 2.9982483
-0.326046 0.30055737 2.7576082
0.5972805 0.35255682 3.1452167
0.14997482 0.7928567 2.943452
0.28608704 0.42042208 2.526513
0.23486137 0.78383994 2.908896
-1.2884579 -0.38478184 2.043027
0.67310905 0.73720217 2.763207
-1.1307259 0.9310039 2.674517
1.3284416 0.48749113 2.2370696
-0.9934788 1.093708 2.9707925
1.1069584 0.26385283 2.5079076
1.7214203 0.6306888 3.0078483
0.8459778 0.2128222 1.8309076
1.5205965 0.50986266 2.2355356
0.31162262 0.11458397 1.7400016
0.42760658 0.7707319 2.7697477
0.53816605 0.17261958 2.9329276
0.34505463 0.8009548 2.911303
0.5794544 0.77596664 2.7033052
0.020923615 0.066809654 2.6746821
-0.37071228 0.12845707 2.6259832
0.2365818 0.1540103 2.6869485
0.45743752 0.23486423 2.6920905
0.06349182 0.8323263 2.6704478
0.39424706 0.3639704 3.0509937
0.39873123 0.36624688 1.7466453
0.4566784 0.79576397 2.9853058
-1.2964363 0.98787224 2.9303448
-0.52713203 -0.018182755 2.7923617
1.9402905 0.4252119 2.5461366
-0.011842728 0.06574869 1.706321
-0.15382195 0.22828627 2.3279138
0.714304 0.7681116 2.785602
-0.37325668 0.12817907 2.268825
0.76451015 0.22411776 2.9610248
-0.3952217 0.12687922 2.259198
0.8048115 0.75897515 2.5077293
0.6965389 0.21789718 2.9799383
0.5013504 0.18015766 2.5567257
1.1810341 0.3130386 2.5128226
0.3796978 0.1632142 2.9921052
0.27545166 0.45614338 2.9677675
1.7992516 0.030043602 2.4090915
-2.0431519 1.3745012 2.4190013
0.16915512 0.23217535 3.0318558
0.7237854 0.23741722 2.9808161
-0.2931347 0.1992693 2.3168447
-0.43498802 0.04404211 2.835433
1.8571243 0.4593029 2.2565908
1.0781231 0.6476536 2.9997156
1.7430019 -0.009548187 2.2737327
0.7697382 0.39566094 3.0577345
-0.1856575 0.2551689 2.905667
1.8767786 0.45982575 2.990594
2.540866 0.4792782 2.5859318
-1.0342045 1.1446853 2.9217267
0.87325096 0.29484582 2.7644296
1.1705141 0.6287663 1.8567543
-0.5705471 0.01668191 2.6566615
-0.49251938 0.116431236 2.6586251
1.7558908 0.44323164 2.1732202
0.20807838 0.2602892 3.0333457
2.2716265 0.38052773 2.9768276
0.87868786 0.30292773 2.7578204
0.7521124 0.3968479 1.8231976
1.7242403 0.5115514 2.2753973
0.7408142 0.2834692 2.786687
0.42260742 0.38155526 1.7490929
0.028799057 0.35325384 2.6547718
-0.7163162 0.015861988 2.2474356
0.4668827 0.38912088 2.7005093
-1.1115894 0.96961176 2.2193265
0.53104496 0.24995661 3.1585915
1.7754021 0.45064187 2.1682851
-0.07606888 0.31339693 2.9271374
1.5134449 0.69345164 3.004107
0.59672546 0.2699685 2.9142845
0.5367756 0.8017981 2.8086784
1.791338 0.53785443 2.2380338
0.25769424 0.20541263 2.7667646
0.3344822 0.8242433 2.7667994
0.12246895 0.4042163 2.653798
1.6705179 0.5817652 1.8986379
0.21842575 0.27166796 2.8573837
0.69576645 0.8158307 1.7707719
0.593668 0.39418936 2.2693515
0.20801926 0.838294 2.7338095
1.294424 0.67759037 2.4882357
-0.25244904 0.36358374 2.4364204
0.8939142 0.8188243 2.439021
-0.660902 0.01169157 2.670806
-0.4645958 0.35392588 2.3877525
-0.29826164 0.13599968 2.9786649
-0.42017365 -1.4496441 2.0858126
-0.2282505 0.15855932 2.9661112
-0.4448986 0.07863212 2.9546556
0.52558136 0.39992946 2.0627413
-0.25999832 0.30892086 2.3467183
1.1753302 0.61155653 2.3255806
1.163969 0.61525726 2.283113
0.73948 0.30426645 2.946879
0.63741875 0.8429253 2.5016692
0.57717514 0.40809804 2.7748668
-0.27698898 0.16716242 2.72983
0.6856518 0.30107164 2.9801264
0.31176376 0.36348915 2.7382278
-0.96081924 0.96870506 2.23595
0.39816666 0.3987646 2.7356343
0.60073566 0.2850175 2.9145133
-0.52462196 -1.5089407 2.731191
-0.541811 0.10653448 2.716636
0.10120773 -1.0792542 2.070879
0.050600052 0.30272388 3.0067618
0.07162857 0.34037685 3.044826
0.19465256 0.87002516 2.3835921
-0.80602455 0.07960749 2.9478922
1.1278887 0.38579345 2.4561615
1.141654 0.73067904 1.845711
-1.4190083 1.0593413 2.2570772
0.6412983 0.85155916 1.7655971
1.1363497 0.73639107 2.886533
1.1365757 -0.3547306 2.1571825
-0.29371643 0.22646523 2.228907
-1.2021732 -0.042007685 3.120373
-0.104234695 0.3004217 3.0167646
-0.80091476 0.35323495 2.6503503
0.5537205 0.42041618 3.1307771
0.1191864 0.37869835 3.0097876
-0.016206741 0.3377385 2.2520967
0.38217163 0.4210031 2.4705153
0.54696655 0.43410945 3.1307025
-0.041713715 0.3357401 3.0265255
-0.5312576 0.21131086 2.9772437
0.43365574 0.48589325 2.7967255
-0.40110016 0.24047565 2.2137508
0.031360626 -1.1054535 2.512567
-0.6933346 0.1389308 2.9294484
0.28905106 0.88853204 2.388567
0.7953911 0.3505051 2.7061725
-0.120025635 0.3345766 3.0315955
0.16691971 0.42453194 3.0118148
1.923955 0.5686457 2.2866101
0.115283966 0.50142 2.725029
0.7036905 0.59313107 2.8388624
0.28699112 0.88881075 2.3739476
0.65188026 0.4595601 3.1251583
0.23887253 0.4496706 2.8558547
2.4268494 0.6502583 2.7808816
-0.23277855 0.15772343 2.1469095
-1.353939 0.3906343 2.83218
0.55618477 0.87154317 2.6809359
-1.9026566 1.1778871 2.8367734
0.36990738 0.28481627 2.757663
-0.012384415 0.45326668 3.0293956
0.5970211 0.88821936 2.6966
0.6089363 0.88690186 2.6757202
2.902484 0.33102155 2.2391026
-1.0878468 0.011891842 2.6182477
0.643095 0.49415743 3.0208645
0.6315975 0.8843355 2.6552806
0.09696579 1.0190287 2.7507377
-0.010631561 0.4681158 2.877493
-0.14496613 0.49884915 3.0415592
-0.14701462 0.5060335 3.0561106
-0.16114426 0.51270586 3.0996406
1.8469992 0.7491075 2.8985815
0.3656273 0.29083705 3.0422277
0.1570797 1.0122819 2.7070346
0.62410355 0.89184284 2.8110297
0.10682297 1.0245867 2.6903398
0.3593788 0.9228637 2.7529843
0.36792374 0.29128718 3.0280666
1.3397474 -0.17542744 2.6351738
0.7535858 0.876946 2.7514348
0.90722847 0.83187056 1.8247886
0.16742325 0.53312635 2.7133822
0.20329094 1.0088801 2.663174
0.8457241 0.86629057 2.7264564
0.6372986 0.89074934 2.6696653
0.851244 0.86652577 2.4466105
-0.24524117 1.1667552 2.4775767
-0.1111145 0.985988 2.4783695
-0.11555672 0.40750742 2.4382386
-0.10585785 0.4183755 3.0518947
-0.053749084 0.9793652 2.4514685
0.8416252 0.8746619 2.4531033
-1.9203434 1.2047545 2.8035402
1.4157715 -0.11325073 2.82756
-1.311121 -0.02112794 2.0638819
1.3459339 0.47525644 2.2357397
0.64072037 0.90413797 2.8114846
0.35253143 0.5549179 2.2634459
0.38034058 0.93488264 2.7536254
0.573637 0.5680183 3.082372
0.26668167 0.34502053 3.0615904
-0.15141869 0.5495603 3.085246
0.7997999 -0.51888657 2.1192865
-1.7229252 1.5323591 2.321419
-0.18963623 0.39139414 2.4561832
-2.0059566 1.6363139 2.6660802
1.1930141 0.83976936 2.738237
1.2846813 0.82426715 2.7198148
-0.8053608 0.12395096 2.981056
-0.16489792 0.41751385 3.0419884
-0.8434677 1.0786937 2.699282
2.2377186 0.46509933 1.7252738
-0.18549347 1.0096678 2.4748316
-0.48504257 0.27616978 2.7109208
0.17050934 0.5616209 2.7466574
1.96241 0.6902671 2.6397815
-0.043230057 0.9929811 2.4519427
0.9145403 0.8801106 2.4637933
-0.04732895 0.28812695 2.8355746
0.755188 0.99437237 2.5566308
-2.9200401 1.983902 2.5224352
1.209691 -0.82090473 2.4914703
-0.46896744 0.5467001 2.7161448
-1.0797501 0.020181656 2.821094
0.35191345 0.3678043 3.0565054
-0.6693039 0.20407629 2.3703256
-1.0736828 0.5347222 2.1692839
1.1679478 0.617869 2.2837706
-0.4422531 0.31331587 2.4608047
0.14424706 0.3303504 2.8642614
0.8544178 0.91521513 2.4956772
0.118572235 0.3549919 2.8707852
0.035650253 0.52539444 2.4753535
-0.42256737 1.0824727 2.6751666
-0.052137375 0.33136845 3.010665
-0.6294651 0.23048306 2.3819456
1.8420563 0.8225708 2.78027
0.80906105 -0.48224068 2.508101
-0.6069355 0.24928427 2.360083
-0.36736298 0.2823186 2.9728293
-0.011629105 1.0477487 2.6894512
-1.1147194 1.181748 2.6353188
0.39605236 0.7083554 2.9404023
0.161829 0.38445282 3.0019178
-0.24987602 1.1067835 2.6661386
0.5943508 -1.3114023 2.429862
-0.046194077 0.5297408 2.8867245
0.6413784 0.99709177 2.6696012
1.4381275 -0.56254387 2.3552198
0.6952934 0.9905232 2.6504169
0.6442089 -1.255785 2.3749027
0.30482292 0.6154461 2.9859133
0.15258026 0.618361 2.6310158
1.9135771 0.84670424 2.7825773
0.53611374 0.45997405 2.2724438
1.3268757 -0.6161232 2.4524322
-0.104141235 0.3739364 3.0168924
-0.6937008 1.1691116 2.6656218
-0.2805252 1.1186103 2.5151114
-0.5600357 0.3117833 2.8510098
0.22137451 0.4392557 2.7529457
0.896636 0.9800384 2.5744004
0.33607864 -0.79541874 2.5118942
1.697216 -0.27664185 2.5967467
1.1767025 0.95156944 2.7581713
0.19791603 0.64658403 2.6496754
1.786912 -0.1754551 2.6569548
0.9218111 0.9908476 2.596395
-3.0027027 1.5246004 2.5155854
-2.5925293 1.5151886 2.5312212
0.791461 -1.0550728 2.5012183
0.23231888 0.6618204 2.6293354
1.3385181 -0.6855564 2.5099807
0.9431467 0.6427134 2.9861948
1.3346968 -0.57584095 2.4553237
0.46082115 0.4879985 3.0384257
0.20742035 -1.5229263 2.4812236
0.17344475 0.43812585 2.7437909
1.1676531 0.6138234 2.285389
-1.1370335 0.13786936 2.8785357
0.2830372 0.4646504 2.7342415
-0.5812988 0.3886795 2.9311135
-0.6095638 0.39360476 2.9459338
1.6104288 0.073322296 2.114478
0.35040474 0.49737167 3.0570986
0.0060577393 0.4063964 2.531131
1.8562536 -0.06333637 2.2323852
1.7534399 -0.111029625 2.1798341
0.10289955 0.4762442 3.0585358
-0.29045296 0.6111786 2.9435642
-0.13560677 0.62295026 3.0782938
0.1061306 0.4768691 3.0298004
0.6872597 -1.3379917 2.4336429
0.39698792 0.53481746 2.7892756
0.37771416 -1.3049393 2.032193
1.1561146 0.67342806 2.339703
-0.020929337 0.4996438 2.8090158
0.29484177 -1.3659306 1.9762592
0.67232704 -1.3545446 2.3757904
-0.2322216 0.5586066 2.6924586
-0.28447914 0.46195197 2.9613113
0.66578865 -1.3476658 2.4223003
0.9890299 -0.67737675 2.5095758
1.7607737 -0.006541252 2.5512865
0.67974186 -1.3329782 2.3684344
-0.20524025 0.48290706 2.9269214
1.0130043 -0.93298626 2.4088352
0.36854744 0.52573824 2.9831023
1.7637854 -0.08526993 2.6200294
1.7489672 -0.07618141 2.6196434
-0.41379547 0.48819876 2.7043583
1.2900448 -0.39481258 2.3123972
1.266715 -0.4046774 2.1845007
1.1579905 0.67131555 2.337418
-0.8071976 0.38296866 2.2071037
1.255044 -0.39278507 2.1843183
-0.42276955 0.5013709 2.712092
1.2212658 -0.6192713 2.140932
-0.89642143 0.6149845 2.9978714
-0.17532158 0.65091395 3.0777047
-0.19513702 0.6649652 3.0701075
0.06507301 -0.9601698 2.4955056
-0.19821548 0.66495633 3.0408356
0.0065727234 0.52600384 2.9479694
1.4373894 -0.016978264 2.0934858
-0.921072 0.6544539 2.2105877
-2.2475414 -0.2776723 2.2990868
1.2955017 -0.53999996 2.1085348
0.14501 -0.8855095 2.5038733
0.21948242 -1.2534971 2.1745465
-0.3625431 0.30720472 2.6445835
-0.07184219 -1.0331869 2.4326007
1.0691414 -0.7432718 2.0651443
-0.6048145 0.45761204 2.5821903
1.0466719 -0.753829 2.1166592
0.93228245 0.7167258 2.5771644
0.95600796 -0.593441 2.639301
0.35034466 -0.7270012 2.1190014
0.36637497 -1.452879 2.008547
-0.46993256 0.53339386 2.4581404
-1.2364902 0.21128035 2.7935948
-0.6329746 0.47898293 2.819675
-0.6173248 0.48586512 2.780881
-0.088438034 0.41652822 2.346231
-0.48466492 0.54342556 2.6311052
-1.2652397 0.2169013 2.7759142
-0.6344948 0.2479763 2.2664378
0.7726269 0.71380544 2.7204595
-0.3863163 0.6027169 2.6069565
0.5997772 0.7096976 2.5252192
1.7390451 0.090628624 2.4103017
0.565176 0.63259983 2.6901665
-0.37732124 0.61508656 2.6
0.40939045 0.5922055 2.674249
-0.5099354 0.63498783 2.6558585
0.4773426 -0.9818182 2.8513718
0.8944006 -0.7442665 2.2594373
0.7990389 0.71277475 2.420632
1.3112497 -0.2653408 2.711773
0.7370033 0.7197209 2.7329183
-1.5227203 0.21581459 2.6469536
0.2223568 0.70624024 2.6918116
0.27598476 -0.75099945 0.7400446
-1.0379391 0.15639448 2.2438846
0.5155926 -1.1447763 2.1001177
-1.611084 0.17872429 2.5993967
0.27429962 0.59244776 3.084297
0.6851311 -0.93929577 2.1103966
-1.3360538 0.31254005 2.642743
1.0058718 -0.49650097 2.2837152
0.48604488 -0.588871 0.7853806
-1.0770264 0.42178965 2.6187289
-1.6552429 0.2333293 2.4892178
0.29768276 1.0657458 2.6074688
-1.6980457 0.2426238 2.5037851
0.6913481 -0.7666578 2.1901572
0.8118744 -0.7115421 2.6271539
0.15539932 0.5515032 2.9981995
0.8422508 -0.65448 2.4699776
0.4413538 -0.96736145 2.710067
0.9411707 -0.2611637 1.1948221
-0.6422367 0.31608057 2.9848995
0.4764347 -0.98186874 2.8487074
-0.13666916 0.4777646 3.0549862
1.7149067 0.12244606 2.3459146
0.20337868 -1.1737862 2.115729
1.057292 1.4129162 2.7066886
0.20439816 -1.1730976 2.071161
0.57843876 -0.87677 2.5938478
0.011917114 0.538496 3.0303357
-1.3778076 0.40288877 2.4941807
-1.1250439 0.56909466 2.5225062
-1.4910908 0.44567347 2.4387956
0.19111729 -1.1702566 2.6768436
-1.0904694 0.6275234 2.4289412
1.1301956 1.6104865 2.7025294
-0.15287018 0.49622202 3.0547051
0.3556919 0.72394866 2.6758819
-1.3954086 0.59108305 2.4740057
-0.047805786 -0.8645716 2.3571885
0.52287006 0.64963746 2.563141
1.1826668 -0.029531479 2.5844035
-1.4057789 0.5956893 2.4817495
-1.2128525 0.67377996 2.4469738
-0.06321144 0.7415228 2.9273772
1.2643833 -0.15014839 2.5223036
-0.11554718 0.7403431 2.9042568
0.44773674 0.64306736 3.0107255
-1.509449 0.562727 2.4827108
-1.2133865 0.6822581 2.455358
0.07513428 0.58939815 2.697726
1.0457163 -0.3780079 2.4482796
2.9285984 1.1381006 1.5137327
0.14817238 0.7481408 2.3803406
-1.1392117 0.7178285 2.2588873
0.4027958 -0.9318361 2.6043103
1.7699995 0.23400211 2.7014256
1.4576511 0.21855831 2.4836502
-0.6613922 0.35245514 2.3290014
0.28757858 1.310153 2.6513755
-0.12845612 0.74720305 2.94033
-0.009052277 0.5819166 3.020312
-0.16552353 0.5633633 3.0675392
1.6544714 0.28099918 2.7209687
0.16579247 1.2774005 2.6357791
0.52629566 1.4220991 2.5953822
-1.8471985 0.507977 2.4774299
-1.879528 0.504087 2.48382
-1.7999363 0.5540576 2.4396071
-1.4517803 0.7183347 2.5073419
-1.9056206 0.5391927 2.441063
1.0392122 -0.34592056 2.5919614
-1.4665108 0.74795485 2.4743934
0.3842697 0.75975555 2.7478344
-0.20097733 0.5072355 2.3708377
1.333189 -0.68671227 2.499611
0.92635345 -0.43838787 2.3555179
0.03655052 0.5985987 2.3627005
0.49991035 0.76895666 2.9203494
-0.9066887 0.44361353 2.262555
0.9079428 -0.10014534 2.4208226
-0.514698 -1.0223274 2.2214904
0.7160301 0.7155082 3.0596
-0.18522072 0.57496333 3.0598505
-0.45000076 -0.9383383 2.2820837
0.065322876 -1.3030863 2.4136903
-0.112903595 -0.6961069 2.3181272
1.7113609 0.5125494 2.4560905
0.7466707 -1.4029636 2.3783178
1.4473753 0.3753729 2.4750261
1.795496 0.0018196106 2.5910246
0.31366634 -0.3570261 2.307929
1.2283201 0.8063364 3.0786858
0.5429354 -0.79149246 2.1155736
-0.31248856 -0.75632477 2.2921772
0.9009924 0.78497845 2.9239979
1.3228569 -0.57870483 2.451046
1.4287434 0.40840244 2.4676142
1.5077171 0.4598236 2.4380965
1.5028629 0.4656458 2.4304504
-2.0765247 0.71822655 2.8206213
-1.9107494 0.7222569 2.7205067
1.0470324 -0.91181946 2.4113064
1.3250246 0.45865536 2.3020782
0.9172516 -0.46081543 2.3978324
-1.5539532 0.11525822 2.6782093
1.8409119 0.5575838 2.4903998
1.1412191 -0.77396965 2.1926744
0.46079636 0.77668524 2.3774917
1.130126 -0.78897095 2.1345046
1.6868896 -0.038459778 2.6089544
-0.40560913 -1.5722618 2.7236335
-1.2290154 0.7600639 2.98383
0.80021 -0.5477381 2.7850823
0.2904873 0.66927814 2.3582902
0.6974039 0.1112833 2.2326274
-1.2358322 0.7600609 2.9371655
0.12835693 0.62914705 2.4912376
0.8880186 0.23322964 2.2310252
0.13514996 -0.22893238 2.0947235
-1.5544472 0.7690909 2.9299824
0.9140959 -1.0106125 2.1495118
1.1396103 -0.42565536 2.3864002
0.87660503 0.84060097 2.4505584
0.79060555 0.263793 2.6964464
-0.64108276 0.42105246 2.8709052
0.91880894 0.36339188 2.708104
0.8929701 -0.7281647 2.4057665
0.10782242 0.6523018 2.895033
1.9013681 0.8655382 2.7649837
0.51368046 -0.7936344 2.1042726
1.1301842 -0.40719414 2.507122
-0.04201126 0.6090121 2.4804306
0.64019394 0.8492032 2.6948285
-0.7971058 0.38417006 2.3829575
1.421731 -0.009684563 2.6251893
-0.8068352 0.38933897 2.3902395
0.5568218 0.8477639 2.6704853
0.71392345 0.30848408 2.2600951
-0.77955246 0.39753485 2.3688226
0.69579315 0.30638027 2.2743244
0.76984215 -0.5659847 1.7883124
1.8428011 0.5237007 2.498383
0.6383047 0.74589396 2.7586315
0.02259636 0.83864516 2.4819622
-0.99310875 -0.7427521 2.7062087
0.8436651 0.8870678 2.6808515
-0.8432846 -1.9236813 1.506593
-0.82478714 0.3922062 2.3580062
0.5644665 0.74099207 2.7765179
-0.103271484 0.6551261 2.9164658
0.26114273 -0.97208595 2.4962096
-0.6141834 -0.4953928 2.7608743
-0.05101204 0.6289687 2.643796
-0.32390976 0.620384 2.7544644
2.0989132 0.89386374 2.943324
0.44538975 0.18710518 2.2481089
1.1406555 0.630332 2.2883427
0.95756626 -0.5382633 2.5813727
0.5637865 -0.669611 2.514236
1.7420263 0.53943634 2.473669
1.0307064 0.87665796 2.6835263
0.17329597 0.7107849 2.6422727
-0.030153275 0.67408395 2.9333181
0.8923416 0.8225603 2.4404788
-0.1383915 -0.14899254 2.8226724
-0.11531258 -0.11540985 2.9734764
-1.306488 0.29701567 2.891862
-0.1624527 0.8571087 2.4944165
-0.03306389 0.6810658 2.897025
0.61651707 0.33993053 2.6651587
0.4405613 -1.2005062 2.452033
-0.8435955 0.44123793 2.933349
0.3669052 0.8864379 2.733415
-0.13650703 -0.11884308 2.9476562
-1.359457 0.29788876 2.937943
0.44009972 -1.2012863 2.4132311
0.8792715 0.82739925 2.4466076
1.385848 0.90294653 2.552587
0.8854246 0.89533734 2.492442
-1.0190926 -0.66681576 2.8555765
0.09324837 0.043293953 2.727058
-0.69168663 0.5267348 2.7088242
-0.19716644 -0.1366024 2.6541185
0.43544197 0.8944045 2.7711904
-0.40454102 0.6387236 2.3725247
0.8847437 0.9021394 2.4992905
0.22271538 0.79333305 2.7265797
-2.0211887 0.8731419 2.814391
-0.9903412 -0.6179285 2.5975666
0.46724415 0.29378033 2.7257273
1.1402893 0.71074295 2.3460488
-0.35020256 0.63412094 2.7189229
-0.92362595 0.88882273 2.8225307
-0.56866837 -0.3374157 2.912639
-0.38822365 -1.4854708 2.7284527
-0.26703262 0.89848 2.7465122
-1.6706085 0.26633787 2.7810376
-0.22456932 0.701736 2.7334151
-0.22782135 -0.12633991 2.6526923
0.13986969 0.9760704 2.6678658
-0.54408455 -0.31231976 2.92299
-0.28614235 0.9792341 2.6431508
-0.07235527 -0.02106762 2.9289145
0.014404297 0.9825682 2.5182567
0.26978683 0.2007513 2.258977
-0.11528587 0.988477 2.5482872
0.59895325 0.94816875 2.5267177
1.7102938 0.48117352 2.4784422
0.007730484 0.98968595 2.525185
-0.46263123 0.6496978 2.4632828
-0.28009033 -0.10065365 2.958139
-1.3064137 0.41329384 2.8057833
0.6294861 1.0017741 2.6670454
-1.0772877 -0.5888901 2.103623
0.1817112 -0.98152447 2.499257
0.71333885 -0.7747345 2.4959288
1.4466562 1.0088301 2.6816475
-1.203228 0.4512267 2.802527
-0.5144901 0.99984795 2.507083
1.379673 0.93333745 2.5719113
2.7202244 1.0373609 2.851875
-1.1696644 0.4609952 2.7724283
0.28344345 -0.89584446 2.4577332
-1.1264896 0.55416536 2.9232032
-0.3654499 0.7088356 2.5157294
-0.95284843 1.0108185 2.676889
0.48269558 -0.98968124 2.8518014
0.82128906 0.8591697 2.6846435
1.6281872 0.49476147 2.453919
1.8670788 1.0440943 2.7834237
-2.2506084 1.0753542 2.529686
0.2845211 1.0909925 2.6244032
1.0222998 1.1128411 2.6944366
-2.3130932 1.1161093 2.5353644
-0.64813423 0.6360092 2.4671292
-0.9822674 0.58426595 2.973431
1.4449978 -0.60541916 2.245863
1.4323025 0.21300507 2.4418073
0.81302166 1.0602431 2.6964576
0.73608017 0.85279346 2.7013664
1.0563936 1.1368885 2.6966772
-0.14054489 0.7169602 2.492126
0.74048805 0.86053324 2.6808853
1.6530695 0.5072355 2.4680681
-1.0856743 0.5914388 2.675846
1.7556973 0.36445332 1.7078729
-1.0428143 0.5845947 2.3790803
0.55709076 -0.57319355 2.3561342
0.20289421 0.95384645 2.7065208
-0.158988 -1.2626705 2.2490323
1.5030136 0.4273758 2.4401484
1.8586502 0.20735931 2.5420384
1.2947264 0.95327806 2.7009974
1.7592573 0.13047028 2.5780606
1.0992069 -0.7732353 2.44589
1.8739414 0.48932648 2.5074272
1.8443365 0.49198532 2.5062733
1.7115326 0.44639015 2.488307
-0.9733696 0.63912725 2.6897545
1.0886059 -0.53770447 2.5268364
-0.079330444 0.07114506 2.7428493
1.0651302 0.9182868 2.533888
1.3769007 0.3073864 0.9708388
-0.0070724487 -1.0813961 2.2722325
1.5345316 0.48348522 2.446371
-0.9757862 0.6385546 2.6662312
0.8607578 -0.46650505 2.5528378
-1.0528946 0.59078956 2.3862844
-1.0804405 0.5865817 2.3691697
-0.5165844 0.72497654 2.8521323
-1.7729435 0.50009394 2.5113733
-0.019773483 0.11707306 2.764169
0.19274521 0.24740982 2.5222306
1.4096231 0.4172325 2.449773
0.62871933 0.5319929 2.563632
-0.052283287 -1.0336981 2.244014
0.86833286 0.9354768 2.763009
2.6706638 1.711298 1.5240331
2.4350672 1.6658182 2.7665794
-0.15711594 0.06270599 2.4743743
1.4483805 0.504364 2.399125
1.6589088 0.42944145 2.475813
0.83685017 -0.09908199 2.3017812
-0.6650696 0.7105088 2.7191854
1.3216047 0.47312546 2.310543
-1.7661152 0.51059246 2.4711823
-0.2345066 0.015957832 2.3011167
-0.23211098 0.01749134 2.268148
-0.1111393 0.81628346 2.7426548
-0.25216103 0.014993668 2.2581763
-1.3940468 -0.6607599 2.9439046
-1.1849651 0.67052007 2.8293567
0.15842724 0.28195095 3.0054657
2.4619017 1.6861279 2.762153
0.49150658 -0.6073551 2.5137677
-0.25942993 0.029162407 2.5904193
-0.35829163 0.7938216 2.8210151
1.0876017 0.2757492 2.2865899
-1.6323833 0.59727526 2.5207906
0.5485382 -1.2946472 2.417991
-0.809906 0.7430911 2.4706814
0.097270966 -0.67319965 2.0475779
-0.9528923 -0.38105965 2.2367706
-0.33069992 0.83639884 2.4830263
0.15802002 0.3005247 2.9979365
0.023848534 -0.73307705 2.1024933
0.14558029 -0.5991421 2.0664086
-1.6293411 0.5983057 2.4805608
0.844017 -0.3020563 2.3509674
0.47994328 -0.19066048 2.6559246
0.96606636 1.046675 2.6932542
1.145195 1.353786 2.616522
0.9775076 0.33741093 2.7172391
0.36131763 -0.23190594 2.6553454
0.55814075 1.2305865 2.579947
-1.9057121 0.5906687 2.481337
0.804039 0.2520628 2.2632213
-1.9450397 0.59699535 2.487503
-1.9508648 0.60416317 2.4380307
-1.9664268 0.6253667 2.445786
1.6540899 0.47235107 2.4784803
-0.38227844 0.85103273 2.5247765
0.8629122 -0.40315628 2.7984576
-0.6939831 -0.21559048 2.8680131
-0.03949547 -0.5612478 2.1012404
-0.6991997 0.80507827 2.4774103
0.77394104 0.24707985 2.2781532
0.7083063 0.21973133 2.2800014
-0.21627045 -0.6689091 2.088802
-0.19605827 0.08622074 2.8686817
1.1537657 0.0073719025 2.8902967
-0.48399162 0.8880389 2.6834896
-0.6853676 -1.0993004 2.7145343
-0.6956177 -1.06917 2.7251887
-0.080200195 0.15787983 2.2866578
-0.021112442 0.21175385 2.6777732
0.20003891 -1.1938 2.2829707
-1.3260937 -0.5680914 2.9318588
1.2263813 0.11319733 2.9264996
0.8318176 0.4248457 2.6875134
-0.5208111 0.89011526 2.7266083
1.489644 0.44211864 2.4355383
-2.021124 0.75129867 2.5103736
-2.0740948 0.7766125 2.524302
-0.48603344 -0.8395214 2.7676744
0.6908827 -0.544796 2.8195286
-0.14720726 0.1451807 2.6266832
1.429656 0.39524364 2.4638577
1.364541 0.15046787 0.97845006
1.4764671 0.45380974 2.4267395
1.1276121 0.73537636 2.3579698
1.4311638 0.4252758 2.412918
1.7952032 0.5237217 2.472972
0.28006077 -0.0475235 2.6883042
-0.2729597 -0.58090496 2.1660993
-0.51001835 -0.75710773 2.1165593
0.47770977 -1.3339996 2.303515
1.1222944 -1.2343292 2.4695501
0.7789316 -0.32638073 1.156733
1.0867472 -1.2187614 2.4107523
0.09233284 -1.1729794 2.238823
0.20025921 -3.0702496 2.3559499
1.8445063 0.46957588 2.5625257
1.8458252 0.4719963 2.508879
-0.14723015 0.15478325 2.6106205
0.6205406 -1.8747158 2.4151
2.50207 1.7135887 2.3648703
0.6448288 -1.8009014 2.4092817
1.7127094 0.42203903 2.4936237
1.6568232 0.45095062 2.4755373
0.9009981 -1.0210247 2.435233
0.09349632 0.30864048 2.9549017
1.5405846 0.3156433 2.6105628
-0.4530201 -0.020807266 2.87744
-0.456995 -0.6678343 2.9098825
0.44965458 -3.7004623 2.4360063
1.8782444 0.423275 2.5199637
1.8481259 0.4456463 2.511288
1.7166119 0.39631462 2.5442502
1.7146664 0.39059258 2.4990034
1.7140307 0.4156723 2.4907484
1.7077298 0.47861862 2.546464
1.7026892 0.54434395 2.539303
-0.4570961 -0.013553619 2.885819
1.6585131 0.4205551 2.4811885
1.6911249 0.670372 2.533861
0.7009659 -1.986515 2.4350212
-0.3238144 0.09732056 2.3149657
1.5243454 0.28214264 2.581297
1.4870553 0.31812286 2.5030744
1.085257 -0.7560215 2.5619628
0.82726574 -0.6508522 2.556744
0.6822758 -1.4029446 2.4101317
-0.43824768 -1.3137779 2.3578472
1.5186605 0.43131638 2.5429435
0.30081558 -1.3729744 2.3028202
1.4327602 0.42389107 2.410917
1.0643744 -0.7574234 2.5617056
0.49080658 -0.9995098 2.8540077
1.4795322 0.376482 2.441309
-0.39849663 0.062148094 2.3160942
1.0150161 -0.8645401 2.5006402
-0.13234138 0.24090195 2.3442461
1.3260498 0.47756767 2.3124862
-0.004737854 -1.5723934 2.1036541
-0.66068745 -0.82382584 2.9303727
0.51958656 -0.48345184 2.4103076
1.7107706 0.5151329 2.466055
-0.40962029 0.09400654 2.40025
0.30408573 0.11223316 2.519873
1.1426573 0.2933674 2.2949736
-0.010498047 -1.5627537 2.0939517
2.8660374 1.4706392 1.5404284
1.450263 0.3492031 2.430953
0.6844301 0.49983597 2.569593
1.0713739 0.26243305 2.2607827
0.27557087 -0.7013817 2.0741715
-0.15696716 -1.021699 2.285648
-0.3258047 -0.46388245 2.2642224
1.1910839 0.31523132 2.3005915
0.36323833 -0.9120827 2.10148
0.45579338 -0.37509727 2.6585643
-0.2814598 -0.4215126 2.233049
-0.12869549 -0.27571774 2.2360446
0.928216 0.24452972 2.730285
-0.118021965 -0.25358486 2.717105
0.09006882 -0.7712898 2.31859
0.43163586 -0.78858376 2.1629913
1.6393843 0.51777554 2.452832
0.4599228 -0.2964363 2.6636357
1.4501629 0.37222958 2.4780478
-0.109931946 -0.2206316 2.7377481
1.435071 0.39099693 2.4538126
0.8537512 0.2246437 2.270698
1.4926095 0.54356956 2.6446447
-0.1910429 -0.89903355 2.254415
1.3948736 0.4203596 2.3959622
-0.7609482 -0.097085 2.6562169
0.25976086 -0.4851036 2.2432988
0.26155472 0.13363743 2.3479083
0.9675331 0.37669277 2.2539253
0.988636 0.14160156 2.3140357
0.75631523 0.1351757 2.2756581
-0.052318573 -0.15241814 2.268825
-0.24794197 0.20973396 2.4333339
1.3169203 0.4710741 2.3039238
0.57803345 -0.022701263 2.261121
1.7692814 1.414074 2.398261
-0.115338326 -0.18797398 2.7575684
0.05942154 -0.5732136 2.7978692
-0.02407837 -0.62862206 2.81007
1.5043793 0.38516998 2.4496334
-0.051057816 -0.6310501 2.8182917
0.051675797 0.3969593 2.7376156
1.0372353 0.26581764 2.2678893
-0.10168934 -0.6765709 2.186103
0.38926506 -0.07574463 2.7108269
0.7953253 0.1025238 2.2376451
-0.31990528 -0.8917103 2.635456
0.55539703 -0.456419 2.6816037
0.008482933 0.37134933 2.6936922
-0.03992462 -0.091361046 2.7761536
0.6978264 -0.18699455 2.7112544
1.4247084 0.38464928 2.4227095
0.24555397 0.19231701 2.3598287
0.9069519 0.19839668 2.2872894
0.81784725 0.09676933 2.2848415
0.23346424 0.19314861 2.3679988
-0.14094162 -0.14902401 2.6116345
-0.70769787 -0.65920544 2.8126411
0.8919697 0.85123825 2.4516168
0.28367805 -0.71355057 2.1514072
0.22437286 -0.7857075 2.2017846
0.17745018 0.1879654 3.0091367
-0.19606686 -0.6849861 2.0881426
-0.104239464 -0.6050682 2.9228764
0.25611687 -0.29876137 2.0983427
0.26210117 -0.67572784 2.2115347
1.7496643 1.5874863 2.404014
0.46752644 -0.07421875 2.6515937
-0.5395775 0.05356121 2.9424422
0.60656357 -1.6309891 2.364241
1.1391592 0.4942894 2.73075
-0.3865471 0.15420723 2.9772978
0.40250874 -1.946476 2.2291584
0.39486122 -0.3534584 2.8531423
0.26139736 -0.50178146 2.8511224
0.34767246 -2.092266 2.2023787
-0.36725998 -0.6163559 2.1055484
0.7531204 0.28188992 2.2625475
0.10794449 -0.7143822 2.2208223
-0.8496933 -0.75250626 2.225834
0.1261921 -0.6517792 2.8491364
0.48323727 -0.102005005 2.7362723
0.45367146 -1.5073185 2.3286185
1.1845608 0.6234169 2.2868247
0.73574734 0.27873135 2.277658
0.5138798 -1.5936985 2.2440612
0.21484661 -1.7157097 2.1687102
-0.28907585 0.2311554 3.0250149
0.0026016235 -0.8189812 2.1886055
1.3270607 0.49563026 2.3143826
-0.06421471 -0.30975437 2.7899094
-1.1479359 -0.27759838 2.6532202
1.0484629 -0.15034866 2.2875562
-0.49090385 0.11357403 2.3451946
-0.5057478 -0.40466118 2.854784
0.32848263 1.3160706E-4 2.2273645
1.1271334 0.63980865 2.2913175
0.655653 -1.1349144 2.1751244
1.238832 0.43052673 2.294569
1.2259512 0.3353138 2.320014
0.7894192 -0.458601 2.7565174
0.15811062 -0.10174847 2.8202477
-0.91983604 -0.13222408 2.6543007
0.7793913 -0.43182755 2.7569182
0.20114803 -1.6979504 2.1490197
0.4284134 -0.14982605 2.7411675
0.5064144 -1.0271683 2.1295338
0.13642311 -0.09693718 2.8278701
1.1112103 0.42742348 2.3197122
0.56996727 -0.87973213 2.1993203
0.79604816 0.43122292 2.6812649
0.49863243 -1.0208588 2.119834
-0.25296974 -0.36863613 2.5824475
-0.43697166 -0.9548073 2.3207858
0.64296246 -0.5221405 2.712272
1.2395 0.8095093 2.3004293
-0.437294 0.16393852 2.576408
1.0195093 0.25410652 2.7605364
-0.086037636 -0.22738457 2.9667776
0.5230999 -1.0157661 2.2755914
-0.8379154 -0.06492996 2.959199
-0.36492825 -0.23314857 2.3889751
0.5152178 -1.0090485 2.2854986
0.6697116 -0.55768394 2.3043368
0.9519596 0.18214226 2.3025064
1.6993608 2.1139908 2.3759353
-0.06133747 -0.2080555 2.9513478
0.4330635 -0.81820107 2.291244
0.499609 0.7550955 2.6978981
0.9614496 0.59262276 2.3961122
1.0035205 0.6986313 2.3733444
-0.9039707 -0.86641216 2.5710883
-0.35243893 -0.19619274 2.4015312
1.1328135 0.72625256 2.3540978
-0.2686386 -0.105158806 2.376314
1.0621424 0.41620636 2.273809
0.37089825 -0.9045601 2.2307305
-0.06332588 0.43253803 2.6024384
0.1526022 -1.2842941 2.389341
-0.05552578 -0.45845795 2.961037
0.9180007 0.6302719 2.4058473
-0.9222374 -0.86906433 2.5790348
0.36306 -0.8983898 2.2406523
0.0395813 0.19508648 2.435656
-0.36373997 -0.18129444 2.3275988
-0.09606838 0.08006954 2.6824737
-0.047073364 -0.44844246 2.9428406
1.04904175E-5 -0.7174492 2.959034
-0.20376492 -0.28566647 2.642552
0.36143017 0.035100937 2.53053
-5.0354004E-4 0.47886562 2.6244385
0.21037197 -1.0338669 2.3980498
-0.16781712 0.0254879 2.7024608
0.37775803 0.16825867 2.267542
-0.14522552 0.046652794 2.668544
-0.8447361 -0.59138393 2.2755258
-0.43478966 0.23183346 2.8365378
-0.23712921 -0.65781784 2.266215
0.5541849 -0.46538925 2.2714844
1.7300014 1.8055649 2.3876147
-0.5359707 -0.51107216 2.9067054
-0.006170273 -1.3504333 2.8357966
0.06150818 -0.30486107 2.282019
-0.22016525 0.014505386 2.5524921
0.26167297 -0.81772614 2.2617602
-0.28260803 -0.6967354 2.4452434
0.30375957 -0.69467735 2.8729734
-0.78681374 -0.6934557 2.1032012
-0.061504364 -0.43546104 2.2454593
0.50732994 -0.294796 2.3874435
-0.9058628 -0.03549099 2.8207173
0.15975952 -0.97525024 3.0663657
-0.75106335 -0.46664238 2.6501946
0.19775772 -0.8815098 3.0473394
-0.53795147 -1.4606781 2.2386322
0.8875499 0.8439102 2.4755073
0.283679 -0.7127304 2.2488923
-0.89847755 -0.5784855 2.8924227
0.14019966 -0.45790672 2.2987263
-0.77497005 -0.4631548 2.6584678
0.21509457 -0.8216572 2.8867602
0.68605804 0.37185478 2.494869
0.42144203 -0.025255203 2.5589654
0.8527255 0.8297043 2.4835925
-0.05949974 -1.3228207 2.6953616
-0.2547493 0.030709267 2.9808192
0.08133221 -0.527668 2.2717242
-0.4126053 -0.8356228 2.9662294
-0.37639046 0.28530025 2.8412793
-0.10537052 -0.7686291 2.963478
0.4241743 0.6726885 2.703556
-0.25891304 -0.9771843 2.2840786
-0.21118641 0.08483124 2.5756352
-0.14462471 0.5066147 2.689783
0.36202335 0.107437134 2.3685784
0.49399948 0.8790045 2.5460382
0.47151375 -0.03151703 2.4990177
-0.50120926 0.3077097 2.9019737
-0.51360893 0.31000614 2.918035
0.26227665 -0.20938683 2.32159
0.9028015 0.5256462 2.3576078
0.046619415 -0.26394463 2.2746475
-0.21274376 0.09573746 2.5853238
0.15820312 -0.72083473 2.485048
0.6042671 0.39035034 3.1650581
0.281497 -0.6329422 2.777689
-0.44130325 0.35301018 2.6830726
0.5954857 0.9560766 2.5252333
-0.22264671 -0.5670204 3.0062747
-0.18012047 -1.4657059 2.4698825
-0.36097336 -1.0922489 2.9918246
0.78666544 0.8814087 2.5022912
-0.3489809 -0.7156162 2.945578
-0.6672878 -1.0898724 2.6557605
0.011424065 -0.54455376 2.7438018
0.5438862 -0.13522911 2.7728684
-0.67848396 -1.0877705 2.6752043
-0.20630074 0.50932217 2.4577494
-0.018486023 -0.5712776 2.7510834
-0.20094013 -1.4370213 2.4805114
0.7796378 0.958189 2.513459
-0.23295784 0.08939457 2.592813
-0.28197956 0.06745911 2.990355
-0.028388977 -0.56859016 2.7897792
0.314394 0.17547226 2.6896923
-0.29686928 -0.96260834 2.7310498
-0.03624344 -0.6323528 2.8153558
-0.042396545 -0.57188606 2.7696786
-0.23317337 0.5113869 2.725553
0.46719265 0.60886383 2.718322
0.59365845 0.9772854 2.5565608
0.46778488 1.0017033 2.7889924
-0.49694252 -0.08010483 2.8161018
0.62437725 0.11728287 2.4101686
0.20481491 0.5083904 2.6865027
0.1812849 0.5004368 2.6953435
-0.6744213 -1.3159866 3.0129354
-0.7679205 -0.31651592 2.8081355
0.26946735 -0.552454 2.335215
0.45500088 0.15769386 2.4028206
0.17789745 -0.052049637 2.626731
0.9162884 0.66809845 2.40247
-0.25616264 0.49909782 2.4947903
-0.059435844 -0.31617355 2.76866
-0.6708603 -1.3078213 2.992852
