ply
format ascii 1.0
element vertex 903
property float x
property float y
property float z
end_header
1.0905244 0.09360695 1.7205231
1.5100825 0.28200245 2.3068483
0.79475975 0.01586628 3.052517
-0.023322105 -1.0063057 2.3089898
1.6809711 0.42339516 1.9833443
0.6580682 -0.5310936 1.962177
1.4080644 0.15050316 1.7353265
1.0777617 0.47398567 3.3556054
1.088501 0.26798344 2.8914144
0.7271576 0.24376869 3.6039069
0.55844975 0.18855858 3.3775518
0.76994514 0.53004646 3.739155
0.7057972 -0.973094 1.8910275
0.5675545 -1.2347202 2.098795
0.58705807 -1.1110153 1.7178332
0.9692497 -0.3585291 2.0191932
0.16092682 -0.2727251 3.378679
1.1593122 -0.20324516 1.878716
0.6232014 -0.7685909 1.5460088
0.32896233 -0.26279068 3.6824517
1.3307991 0.442811 1.882746
0.20627975 -0.3180685 3.3119955
0.21992493 -0.45088005 3.2202034
0.72481537 0.13083458 1.5939754
0.14117432 -0.32441664 3.195176
0.4466629 -0.10655528 3.2497883
0.42108345 0.49328542 1.3369238
0.23036003 -0.1447897 3.211685
0.32470322 -0.4081633 3.6806483
0.42331505 0.658405 1.438488
0.20919609 0.04936242 2.85724
0.42420673 -0.6198864 1.6636405
0.43248177 -0.023605824 1.1219923
0.51382446 0.100842 1.4405138
0.5740204 -0.081967354 1.5429633
1.0758181 -0.12897015 2.7371309
0.7018089 0.038384438 3.1079865
0.8782215 0.031028748 2.924469
0.22300243 -0.42642784 1.1750314
1.532093 -0.5054493 3.4431162
1.2402391 -0.4081421 3.602036
-1.2212286 0.47369194 2.0962522
-1.1040821 0.7621536 3.398838
0.757226 -0.24944115 3.2368822
-1.0917187 0.3768444 1.7268138
-0.35099792 0.36110878 1.1512232
0.21707821 0.63069916 1.5331051
0.578701 -0.21731567 3.6450858
0.21636581 -0.13096619 3.4858894
0.26507092 0.6948414 1.6581864
-0.96549034 0.88783646 1.1263785
0.689373 -0.27043533 3.7393613
0.9623971 0.24463654 1.7022479
-0.9542484 0.54221153 2.5254467
0.4290471 -0.5469856 0.9943855
0.17582369 -0.10287666 3.8955445
-1.0372186 0.66269493 2.184332
-1.6729736 0.83099365 2.0361388
0.5380597 -0.23598671 3.4746265
-0.81294274 0.18862534 3.683485
1.3829108 -0.27105713 2.6776512
-0.029967468 -0.4181671 0.9328581
1.5467393 0.4010868 2.372065
0.2834978 -0.57338905 0.7790887
1.2874637 0.25164413 1.9966623
0.9219341 0.47243118 1.8695555
0.15144634 -0.05858612 3.6865656
0.1751175 0.49194717 1.4745548
0.25937414 -0.14655876 3.6455183
0.5189934 -0.10003853 0.73527926
-1.3693104 -0.8991852 1.1715682
-0.8005409 -0.6628876 1.2317448
-1.2640004 -0.86694145 1.0327733
0.76065254 0.09641075 3.2805662
0.04273796 0.47056198 1.459376
0.5042143 1.0234795 2.3505225
-1.1085167 -1.1676846 3.1682289
0.14813995 1.0283489 1.8600547
-0.15933609 -0.41020393 1.329473
-0.76169205 -1.1071091 3.0025725
-0.32322693 -0.82582474 1.4393735
0.14271927 -0.5429497 3.897097
1.5185528 0.47569752 2.4458766
0.44981384 -0.19494057 3.8104167
0.29086304 0.83102417 1.4325247
0.8854389 0.033308983 3.161847
0.2961464 0.8713999 1.5716033
-0.44114304 0.82648945 2.2063532
-0.35593224 -1.4290285 2.9335194
-0.91130257 -0.3849964 2.0803509
1.0092907 0.90501976 3.4044933
0.20143127 0.9490576 2.8531647
-0.12741089 -0.16658211 3.1980848
0.06208229 -0.7490964 4.044962
0.54597473 0.20181859 3.5944223
0.22474289 -0.35849524 3.4371967
-0.5146618 -0.37441912 2.7938309
-0.1872158 -0.39285642 1.4234905
-0.13656616 0.608436 3.1286583
0.25036812 -1.0911665 3.6074576
0.23363495 -1.1500847 3.5739408
-0.14283371 -1.8531301 2.5343175
0.49856377 -0.0166502 3.7678394
-0.42595863 -0.032450676 3.0831165
-0.3571663 0.35473776 3.1452594
-0.13295364 -0.43252563 2.9539013
0.056898117 -0.27375126 1.1387687
-0.15810966 -0.40084743 1.1530666
-0.2142868 -0.384099 1.5526772
-0.33592415 -0.8284998 1.7522993
0.17214012 0.48640728 3.179428
0.54916096 -0.99569607 2.7998095
-0.47377872 -1.011857 2.1614027
-0.23206902 0.07675552 3.0445967
0.23153114 -1.119729 2.5562487
-0.606761 -0.2081089 2.61512
-0.62782955 -0.25841618 2.7846231
0.7367735 -1.0163584 2.4490528
0.80125713 -0.32052994 2.8419552
0.018407822 -0.3333645 3.0429354
0.34107685 -0.50689125 2.8584423
0.27399063 -0.08490944 3.2275515
0.26332855 -0.15421486 3.0598097
0.14349556 -0.6011944 2.791772
-9.1058 -17.5696 10.1149
-9.1058 -17.5696 10.1149
0.053545 -1.2565117 2.4614394
-0.39206982 -1.0451326 2.3067486
-0.47362328 -1.062789 2.1294663
0.21553612 -1.1899805 2.538686
-0.3087659 -0.967968 1.6992879
-0.23958111 -0.9548683 2.4265225
0.32635403 -1.1955948 1.8789408
0.40645218 -1.2313747 2.2676075
0.13127661 -0.7770748 2.7766967
0.6501322 -1.0537214 2.7896032
0.14319563 -0.63873005 2.8520012
0.82269454 -0.92260265 1.8418852
1.4639018 -0.3178692 2.66369
0.87505704 0.043276787 1.6694489
0.7144036 -0.47297955 1.7216289
1.6316333 0.37914753 2.3154783
1.3667827 0.18304348 2.2629495
1.3020182 0.22988987 2.104188
1.3357873 0.09078884 1.7905949
1.46069 0.2571268 2.2916152
1.0812674 0.35383224 3.5820587
1.8628011 0.34456348 2.1127863
1.0699234 0.317873 3.411071
1.4248104 0.9714384 3.3911483
1.3362093 0.3022833 2.1677716
1.4971094 0.97962475 3.2546418
0.78978634 0.42805958 3.5174792
1.0068054 -0.27888966 2.6804404
0.4709053 0.14414024 3.5375648
1.6948786 0.5847149 2.183704
0.56509495 -0.21116447 1.5419095
1.2763195 1.0595684 3.0144017
0.722065 0.42680264 1.5199442
0.9382572 -0.597353 1.8289001
0.5648327 -0.5427294 1.4435627
0.45651817 -0.5410309 2.9687304
0.7798424 0.13272572 1.6183002
1.667409 0.6333246 2.0631576
0.5659771 -0.31271267 1.39905
1.2055225 -0.13973665 2.740186
0.75491714 0.13932991 3.431888
-0.101242065 -0.8636434 2.9574819
0.3664322 -0.27971935 3.2276857
0.17186165 -0.6063211 3.2493703
0.52344704 -0.4105953 1.5695858
0.46907616 -0.4610381 1.6355245
0.7450733 -0.20027328 3.0837252
0.35811043 0.3758092 3.2483714
0.36567402 0.8840966 1.6916758
0.5141182 -0.456697 3.196132
0.4805622 -0.39878464 3.247107
0.20830631 -0.12522364 2.8372757
0.60110855 -0.0850749 1.577837
0.3123312 0.34284115 1.384489
0.33774853 -0.48625612 1.4551935
0.088232994 -0.36685562 1.2257793
0.75957775 0.1700077 1.6593025
0.7692356 -0.25372696 3.0169036
0.17190266 0.64651775 1.6438098
-1.2320757 0.846962 1.7032828
1.2980404 0.1621933 2.6337981
-0.20650578 0.7866707 1.7253972
0.9231596 -0.30355644 3.4055345
0.23367023 0.71424484 1.6586194
0.25003815 0.70619583 1.5944529
0.72824764 -0.14642334 3.4271398
0.42215347 0.60709953 2.9533079
-1.0090513 0.5665264 1.3445299
0.18553114 -0.03594017 3.923383
1.4498653 -0.2598858 3.1554227
-1.6076217 0.83026314 2.2166233
0.22457552 -0.090351105 3.9348931
-1.130229 -0.40481567 1.4365699
1.2561922 0.3725834 2.3329432
-0.95658493 -0.725111 2.9329605
0.40897083 -0.5998745 0.87960887
0.15338421 -0.47660446 0.93209183
0.6307831 0.8324909 1.8407539
-0.48085976 0.08146095 3.1220636
-0.76056194 -0.9408474 2.919155
-1.0035172 -1.2119675 3.445435
-0.51193905 -0.94584465 3.436468
0.8334017 0.5882797 1.5634356
-0.48343563 -0.9446068 3.5473263
-1.1105804 -1.3910122 3.2358382
-0.89273167 -1.2053776 1.9457533
0.95747757 0.14915276 3.3327613
-0.9163704 -1.4476662 2.8707294
-0.17782211 0.9294424 2.5660396
0.24547195 0.47642326 1.2828007
0.24390984 -0.43440342 4.119384
0.7636795 0.27681065 3.429418
0.5480442 -0.25780773 4.2396164
-0.30918884 -0.8737402 1.5574484
0.9142647 0.44982052 3.2676811
-0.0065517426 0.04246807 3.1064854
0.04030609 0.15639305 3.1420603
0.15084648 1.0982018 2.3821306
0.44692802 -1.2442062 2.7353582
0.07219124 -1.0654705 3.1880112
0.75092506 0.16674614 3.1824036
-0.40522003 -0.0144639015 3.083704
-0.029426575 -0.5051763 1.1959248
0.57338715 0.34182072 3.2892246
0.6165161 -0.8343985 2.6695747
-0.63843346 -0.8123833 2.6288166
-0.422678 -1.0156538 2.8919487
-0.39430046 0.29685783 3.1283607
-0.59957314 -0.8383459 2.7233515
0.33101845 -0.317348 3.5765471
0.53469276 -0.5904887 3.5522237
-0.12287521 -0.9893594 1.6044326
0.5078449 0.39515638 3.4297776
0.5358696 -0.31038666 3.066042
-0.07859421 -0.72766495 2.755681
-0.6748829 0.31265545 2.8151908
0.5538807 -1.1654673 2.1793203
-0.5401535 0.0399971 2.9500546
-0.26083755 -0.49039268 2.947825
0.62965393 -0.40501785 3.371983
-0.4418049 -0.78396225 1.7936411
-0.6267357 0.22816181 2.8414755
-0.20036888 -0.30782318 1.5452328
0.3944416 -0.1119957 3.4015985
0.34186363 -0.06681156 3.164507
0.120752335 -1.1013231 2.26155
0.71558857 -1.0561371 2.8075352
0.4082613 -0.70082474 2.6712618
-0.59076214 -0.5197563 2.6556787
-0.040481567 -0.31313896 3.0045242
-0.6166439 -0.2749653 2.974081
0.63802814 -0.44498444 2.7826786
-0.19366074 -0.8303318 2.363985
-0.18666172 -0.5112362 2.8853426
-0.034010887 -0.77425385 2.7656488
1.0725584 -0.16788101 2.6243782
-0.56480455 -0.99605846 2.2844365
0.38035154 -1.1321211 2.5935764
-0.27771473 -1.166256 2.0700529
-0.2530794 -1.1465416 1.9846175
0.23290873 -1.2023373 2.049436
0.21532917 -1.1491413 2.4618347
0.21744633 -0.5422764 2.9756792
0.1781168 -1.1818266 2.5354905
0.44903326 -1.2569866 2.258832
0.21863842 -0.5984278 2.854261
-0.43442702 -0.46968842 2.1643715
1.0453775 -1.1269455 2.375134
1.3089833 0.08011818 1.7612927
0.60008234 -0.09797478 3.3187575
1.3809338 -0.053595543 3.034165
1.1926277 0.015464783 1.6449859
1.4303224 0.25562286 2.117143
0.98052526 0.0609684 1.7720654
1.137728 0.058968544 1.3133678
1.3999889 0.12604523 3.0040052
1.1857748 0.22165775 3.1457648
1.578877 0.28314018 2.0533676
1.6528592 0.22298431 2.4899821
0.7653847 0.14445877 3.7324135
1.2304788 0.016879082 1.8118119
0.26289034 -0.91324806 1.264076
1.1039639 0.2874031 1.4849684
0.64536667 0.20548725 1.4787357
1.7522736 0.90299225 2.8347847
1.1372957 0.15153027 2.010671
0.02535057 -0.96252537 1.6822073
1.0019321 0.5940542 3.5443351
1.0726271 0.6614418 3.0242138
0.97393894 -0.31578064 2.6786618
1.493825 0.3636484 1.8694477
0.15077019 -0.031172752 3.7909358
0.76530933 0.45054722 3.1660705
0.37963676 -0.8363676 1.6052995
0.9246197 0.89550877 3.8228424
0.78884983 -0.44852543 2.7659044
0.82240105 -0.09733677 2.9710064
0.47407818 0.103886604 3.7708964
0.3883381 -1.1762733 1.9494547
0.94831085 0.2013731 2.8503437
0.6203718 -1.061636 1.7093701
0.523015 -0.86996174 1.5991069
0.6141281 -0.7828884 1.6136973
1.5116129 0.6252365 2.2821832
0.50564003 -0.6636114 1.5060569
0.518095 -0.6514778 1.4981459
1.8717642 0.8265796 2.7589097
1.3672123 0.8470359 1.6595798
0.6756096 0.3026719 1.5243572
0.48332977 -0.7021861 1.5874013
0.48276138 -0.70205307 1.5721627
0.6879864 -0.0845201 1.5288036
0.36624908 -0.5850918 1.3663151
0.5985279 0.34877443 1.2155714
0.58550453 0.3140285 1.2786239
0.4238205 0.6440718 1.5166692
0.45074844 -0.5953374 3.225651
0.26602936 -0.75564575 1.629001
0.21388435 0.43578625 1.228276
0.5572195 0.16996384 1.4368694
0.61539173 0.051610947 1.563071
0.34651756 0.7884855 1.5691886
0.5863142 0.11075544 1.4744344
0.75486374 -0.3112998 2.956821
0.14398289 -0.3998947 1.0463386
-0.25111198 0.34003258 3.193976
-1.169424 0.7470598 2.8140976
0.44231987 -0.5497894 1.3312795
0.22983646 0.34717274 3.1601224
-1.1890783 0.45000076 2.3477643
0.7809553 -0.3136654 3.158865
0.09061718 0.039405823 3.4420362
0.7655325 0.38324356 1.7535926
-0.54238987 0.47423172 3.1742153
-0.25143242 0.39274788 3.1649003
0.26236725 0.7776184 2.9108777
-1.3805141 1.0974274 2.8513422
0.5978384 0.5191517 1.6647669
0.6812105 -0.2660389 3.31558
0.51131487 0.13900948 3.154684
1.1528163 -0.41425323 1.2823111
-0.035437584 -0.43191528 1.040641
-1.0565958 0.8188267 1.4903196
-0.48434734 0.9233303 2.5272381
-0.017570019 -0.4388466 0.98311305
-0.94881487 0.4447441 3.3284187
-0.098912716 -0.49448776 1.1161832
-0.31562757 0.7723789 2.733199
0.40309262 -0.66119576 1.3900635
0.8498255 0.37576866 1.7614126
0.4076383 -0.5929642 1.1559584
-1.1323984 0.57043076 2.5518694
-0.37408864 -0.61569786 1.3230017
-0.10426974 -0.14821815 4.0142746
0.9665303 0.5471096 1.9387566
0.44711375 0.5395622 1.4303145
-0.21623135 -0.17036247 3.7273407
-0.28241634 -0.3886032 3.3378391
0.39108706 -0.72415924 1.1624923
-0.2837472 -0.6071663 1.5804483
-1.0504513 -0.79613876 3.4203706
-0.18467331 -0.45786667 1.1438873
1.3725929 0.38189125 1.9663479
-0.97986794 -0.7504444 1.2020688
-1.4743118 -1.3788643 2.3987823
0.62879467 0.06334686 3.6439908
0.65801716 0.82967377 2.0727625
-1.0657034 -1.1399269 3.65718
-1.0103903 -1.0889206 3.0949717
-0.96418667 -1.2684631 1.8822544
0.88163567 0.1746006 3.6597638
0.76447487 0.036109924 4.0394807
1.1629791 0.43839836 2.1296015
-0.625453 -1.0504494 3.9580834
-0.021997452 0.97221947 2.1968489
0.0931015 -0.609931 4.1620197
0.68873787 0.8965187 2.0899348
-1.0202179 -0.6555853 2.3509736
1.542366 0.33893967 2.7062268
0.230299 -0.74475765 4.138712
-0.27501488 -0.7917223 1.4561672
-0.28320122 -1.0066824 2.8266344
0.2351799 -0.48372936 3.4608192
0.18573761 -0.8236792 3.858076
0.5219326 -0.31921822 3.5642328
0.3984146 -0.3380307 3.4394994
0.24554443 -1.0847416 3.406643
0.29460907 -0.7920519 3.4236221
0.22525024 0.9571912 2.9918818
-0.22964096 -0.457968 1.5088863
0.4844818 -0.680619 2.952701
0.24141502 0.9238334 2.9004474
0.121110916 -0.9905009 1.3641415
-0.20728874 -0.4596939 1.1767001
-0.2202034 -0.20083904 1.4158874
0.2115612 0.07737541 1.1213713
-0.15810966 -0.40084743 1.1530666
-0.37405586 0.5287266 3.0597425
0.83290863 -1.1714773 2.3639865
0.36181068 0.3279829 1.5367651
0.41363525 -0.16850471 3.3831158
0.20942688 0.015909195 3.5177422
0.018692017 -0.6531048 2.7980833
1.1836491 -1.217802 2.7302356
-0.4835949 -0.73283863 1.8367214
-0.8826561 0.07341671 2.5756273
-0.45234776 -0.98187447 1.9766073
1.1466188 -0.45211697 3.5270472
0.57488155 -0.49552727 2.8537378
-0.27744675 -0.30680752 3.004507
0.20892525 -1.0634975 2.4088955
1.377162 -0.25811863 2.6550999
0.5614691 -1.1734772 2.2149057
-0.26179123 -1.0435867 2.6803598
1.785099 0.38170815 2.4048395
0.009380341 -1.1078892 2.5369778
0.09862518 -0.76109123 2.8327198
-9.1058 -17.5696 10.1149
-0.09552908 -1.1495361 2.121696
0.36205292 -1.1324549 2.2309291
0.39029837 -0.61281204 2.90479
-0.68848944 -0.8927374 2.3363905
0.6288123 -1.1005878 2.0428052
0.37530708 -1.0899916 2.8779008
0.42500877 -1.2002192 2.0748029
0.31179762 -1.1428204 2.0277243
0.4861474 -1.2416353 2.4841948
0.64502764 -1.0585337 1.8924732
0.7834149 -0.06992054 1.4891727
1.6007578 -0.19072628 2.65161
-0.15216804 -0.67157555 1.6124191
1.6293464 0.33902454 2.0695796
1.1462245 0.080513 1.8118488
1.1731124 0.09318352 1.827356
1.8507628 0.33876228 2.1978812
-0.019286156 -0.9824829 2.267865
1.8016744 0.30951405 1.9963951
1.2740111 0.06325531 1.7013738
0.49838543 -0.0836153 1.4618545
0.87527084 0.34716988 3.8749897
-0.21380901 -0.91022015 2.1596494
0.3796091 -0.77609634 1.5924544
1.5000877 0.40475178 2.5886445
0.4962492 -1.1367254 2.3492372
1.2426882 0.916831 3.4512124
1.331871 -0.07675648 2.0025036
0.43857956 -1.2241106 2.101635
0.5423708 -1.1731567 1.7687728
0.8996124 0.4820299 1.485265
0.8639469 0.34851456 3.3547878
-0.05484581 -0.96944714 2.960313
0.9209137 -0.5021925 2.5719836
0.77178 -0.450449 1.6867003
0.29933357 -0.49145985 3.0652983
0.5605583 -0.4592576 3.0881882
0.49341202 -0.16805077 1.3264796
0.5963001 0.82870483 3.0442064
0.41052055 0.1328361 1.296608
0.4318943 -0.26467645 1.416964
0.43021393 -0.29212236 3.3045568
0.3138752 0.033563137 3.2327483
0.39243507 0.15817547 3.2766316
0.19130516 0.12661314 2.857187
0.39184952 -0.373991 3.332683
0.62989044 -0.22682309 1.6723396
0.7642908 -0.29640937 2.9927812
0.36515808 -0.40438366 1.4488161
0.17256927 0.12482834 2.831265
0.5063915 -0.5409031 1.6678978
0.33722687 0.97585106 2.900972
-1.552042 0.99788094 2.2321155
0.28252125 0.5333557 1.5685272
-1.5499821 1.0067472 1.6368952
-0.7021971 0.54482555 1.2558074
-0.3779955 0.25918293 0.8728452
0.74361706 -0.3295555 3.0287359
-1.4027882 0.48031998 1.8341668
0.46602917 -0.57834816 1.3672822
1.2403965 0.19080925 2.6789603
-1.4235115 0.482893 2.0767434
0.3178568 -0.5445118 1.2696612
-0.326581 -0.44480133 0.93117857
0.17045784 0.75185204 1.7142767
-0.85597897 0.73220825 1.3873197
0.6128721 -0.23352242 3.5133393
-0.9432063 0.65050316 2.6733527
0.4262681 -0.62571144 1.3053358
0.38156796 -0.50499153 1.1490992
-0.38319778 0.9117527 2.0931802
0.51452875 0.5678692 2.9534986
1.2382529 0.07883453 2.571976
-0.35152817 0.124557495 3.797121
0.39239907 0.57819366 2.8167324
-1.4517987 0.83971596 2.314733
-0.3429076 -0.042778015 3.3454025
0.14418899 -0.08450699 3.9371777
0.46724713 0.49762344 1.5350037
0.32129365 0.0066604614 3.8216324
-0.21071553 -0.45266724 0.7969648
1.2512572 0.24034119 1.9408513
0.0051236153 -0.41656494 1.2074924
0.86085844 0.25584984 1.7593727
-0.044043064 0.39593697 2.8751328
-0.30133486 -0.2991867 3.6998796
0.6915107 -0.038503647 3.9199278
-0.98826027 -0.7701912 3.9476128
-1.157157 -0.8221359 1.5903962
0.9531517 0.2502079 3.3436456
0.88127136 0.1703453 3.5908594
-0.73171425 -0.6498394 3.662996
0.24596214 -0.4459343 1.067769
0.18447399 0.5807953 1.5082114
0.7225094 0.8189697 2.3217578
-0.4108801 -0.71357536 1.019891
0.3209467 0.85100174 2.9220073
0.7737856 0.8428955 2.2552795
-0.6217928 -0.93572426 3.8541582
-0.19222641 -0.43686867 1.2660704
0.7454586 0.42287827 3.1768394
0.5816803 -0.26480675 4.281252
-0.4175558 -1.0274181 2.9706802
0.22246742 -0.40476513 3.3347964
-0.8271179 -0.6299753 1.9362426
-0.57611656 -1.0422773 2.6726956
0.31967163 -0.3612051 3.947717
-0.979311 -0.37108898 2.3317256
-0.9443283 -0.51908016 2.4369707
0.12683678 -1.0091066 3.2891092
-0.65338135 -0.92534256 2.571042
-1.0359535 -0.68209267 2.2811794
0.4778862 -0.48700428 4.333668
1.7755241 0.4750309 2.6124392
-0.22235489 -0.5861206 1.4423685
-0.2989769 0.26514983 3.1745386
0.41607094 0.2782216 3.1453047
0.08313751 1.1373255 2.5985613
0.5953617 -0.32111326 3.1287441
-0.50095177 -0.15456747 3.0647717
-0.2131195 -0.8547499 0.9972811
0.2894783 0.61218834 3.172686
-0.10089874 -1.0253108 1.6294851
0.3759365 -0.87252545 3.7582145
-0.44213295 0.08983135 2.9815016
0.2575264 -1.0933118 2.823053
0.043718338 0.53111076 3.1929002
0.5787468 -1.168798 1.9621906
0.67773056 -0.41430283 3.13198
0.3334427 -1.0645266 2.7879753
0.23508835 -1.0818605 2.7210622
-0.17672348 -0.51739025 1.4435043
-0.16392899 -0.88298607 1.6043677
0.7136097 -0.5238342 3.2093987
-0.096437454 -0.21776772 3.0953531
-0.18772316 -1.095974 2.2648168
-0.44441414 -0.12945652 3.0172725
-0.09549999 0.12616444 3.157054
1.1213684 -0.4353714 3.519145
0.2671957 -0.98107624 2.731986
0.098462105 -0.1416235 3.1869516
0.152771 -0.8226118 2.625371
1.2276583 -0.80520725 2.0144005
0.25249958 0.27000237 3.1305914
-0.39897442 -1.0103788 2.5953627
-0.3977871 -0.29641533 3.1629553
1.7033758 0.42263412 2.6474352
0.10991192 -0.34382057 2.9966297
0.3990879 -0.28941536 3.043725
-0.10382557 -0.70957947 2.7850313
0.1888361 -0.5747013 2.9623117
0.47574615 -0.68774605 2.576828
-9.1058 -17.5696 10.1149
-0.43128967 -1.2826414 2.4131315
0.1904254 -1.156867 1.9118471
0.22465563 -1.1555643 1.9638467
0.042084217 -1.1361456 2.361405
0.3096223 -1.1291904 2.1005666
1.0019567 -1.0743608 2.3367095
1.1050894 -0.40713692 1.4986233
1.0136938 0.10779095 1.6612518
1.5812898 0.2630148 2.15586
1.1598549 0.07954788 3.367514
0.9962239 0.08446503 1.7497953
0.72344494 0.008113861 1.2837497
0.9961438 0.08382511 1.719515
1.5074883 0.28702164 2.4022634
1.498344 0.5168743 2.738001
1.4109659 0.32855606 2.155006
1.4343925 0.24147987 2.2911513
0.9691191 -0.27114582 1.8444691
0.32203484 -0.81296253 1.553256
0.14934254 -1.0580158 2.3324106
0.93508816 -0.3043766 1.8348973
0.55925465 0.11542225 3.7746603
0.98138237 -0.30345058 1.7791252
1.030119 -0.24838543 1.7569351
0.23463726 -1.0849361 2.4292984
1.2092457 0.18317604 1.9354951
1.460187 0.3312626 2.3652253
0.039247513 -1.0352678 2.0960274
1.0557232 -0.14682198 2.7071645
1.6203899 0.55763626 1.8454554
0.58741856 -1.196497 2.6689856
0.72089005 0.31403542 3.1769166
0.9458771 -0.5558729 1.7447555
1.1565714 0.8515301 1.6068134
1.2671223 0.4139738 3.5174992
1.2445335 -0.20954609 1.816355
0.6616192 -0.55940104 2.8526742
0.65279007 -0.58966255 2.7743783
0.3395996 0.4553914 1.3031393
0.36982346 0.5682721 1.3417958
0.28776932 -0.7614498 1.6344019
0.35726738 -0.18778116 3.4500115
0.311718 -0.7214594 1.4419544
0.47275543 0.24332702 1.0348802
0.3816433 0.22065544 3.7442365
0.63797 -1.0201111 2.6075833
0.48010254 -0.5100219 1.6283879
0.46385384 -0.6436331 3.2256877
0.5596466 0.9968591 2.106894
0.5644474 -0.5392666 3.2404456
0.3102455 0.18003464 1.3850107
0.35378456 -0.6621995 1.6277943
0.48011875 -0.4825678 1.643215
0.4272375 -0.51714516 1.4795198
0.8562441 -0.18124771 2.9310577
0.9251137 0.040979385 3.0270905
0.9368582 0.30973816 1.7060585
-1.1427393 0.8071842 3.1342323
0.32460213 0.66882133 3.0744348
-1.2964401 0.54117775 2.320292
0.5988903 0.5203209 2.964252
-1.3938627 0.78546524 2.212319
0.031915665 -0.44069672 1.0796572
-1.0530958 0.64749336 1.7589623
-0.9449978 0.52394676 1.590673
-0.35058784 0.7814827 2.850337
0.5355432 -0.7907295 1.1089225
-0.47918987 0.34227562 0.6516485
0.94467044 0.28421783 1.7259809
0.37339437 -0.54454803 1.0808294
0.39989352 -0.5703716 1.0424392
0.60577315 -0.11174011 3.2794676
-0.44880044 -0.12618828 3.931607
-1.1041106 0.07130623 1.2025381
0.9405823 -0.08989143 1.4086866
1.2568877 -0.038938522 1.0873168
0.42574263 0.5695019 3.0091224
1.4943576 0.32572556 2.3850894
1.3751526 0.17456245 1.6660976
0.4091425 0.02316475 3.9067745
0.49965906 -0.5394535 1.0111544
0.036750793 0.466959 1.7492465
0.23171139 -0.15793037 4.0739484
1.4064493 0.372406 1.2199246
1.304451 0.3081417 0.70791316
-0.6167674 -0.42665863 4.7205453
0.07588673 -0.43193436 1.075958
1.5104895 0.30410194 2.5939093
-0.9154434 -1.0465622 3.2727141
0.39149284 0.9158058 2.703735
0.82041836 0.2489109 1.3054535
-0.06977463 0.6478329 1.5817827
0.6617718 -0.05523491 3.9339478
-0.5717068 -1.0582733 2.7744088
-0.047639847 -0.3934765 1.2785797
-0.32229996 0.7172842 2.8259923
-0.49036026 -0.42886734 2.9958546
-0.024929047 0.91556454 1.7515225
-0.57979774 -1.5219021 3.6229472
-0.5633793 -0.8280735 2.6853304
-0.30495834 -1.3476267 2.9564795
-0.81962967 -0.49400616 2.4912615
0.5970001 0.2385416 3.1490479
1.4840012 0.51804256 2.4244394
0.17044258 1.157609 2.4644642
-0.4943123 -1.6555481 2.9530854
-0.6304531 0.09358978 2.943181
0.15320206 0.9685669 2.219781
-0.48466492 -0.16500998 3.0525932
-0.7049217 -0.7385938 2.6065989
0.16877747 -0.058009505 3.15055
-0.04616356 -1.2464976 3.41189
-0.47184944 -0.20225227 3.1478214
0.2976017 1.184908 2.5813713
-0.34523582 -0.12395215 1.522234
-0.23164558 0.24146938 3.167294
0.12297058 0.92130566 2.8021474
0.5236778 -0.9088979 3.0889025
-0.3346634 -0.75712156 1.7880192
-0.7200508 0.3648901 1.828496
-0.20069122 -0.76265335 1.4909267
-0.3041191 -0.8752613 1.750915
1.0668564 -1.0500622 2.761805
-0.23073387 -0.19976807 1.5092239
0.962389 -0.6633854 3.3139267
0.5511551 -1.1241684 2.0165367
0.66375446 -1.1044474 2.624899
0.34555626 -0.29412365 3.154664
-0.025701523 -0.43361378 2.9425583
-0.19348812 -1.0455942 2.43538
-0.21470356 -1.0862074 2.2474213
0.6390791 0.41075134 3.0421276
-0.17504215 -1.0683584 2.6020956
-0.31829834 -1.0322733 2.5889034
-0.29275894 -1.0130959 2.7328997
-0.30478764 -0.99614334 2.8097744
-0.16405487 -0.45573044 2.7400026
0.26424122 -0.47882462 2.9232683
0.42533112 -0.036764145 3.1876965
0.30400658 -0.47906685 3.0634327
-0.0279665 -0.34973907 3.0419226
0.4668331 -0.99093246 2.7947874
-9.1058 -17.5696 10.1149
-9.1058 -17.5696 10.1149
-9.1058 -17.5696 10.1149
-9.1058 -17.5696 10.1149
-0.3893404 -1.2388935 2.8348157
-0.3730383 -0.7471504 2.8177576
-0.52741337 -1.2636337 2.6905003
-0.43079662 -1.2149353 2.4981368
-0.3511734 -1.1942444 2.0729852
0.094221115 -1.1960382 1.8830729
0.38531256 -1.2197189 2.749101
-0.3732915 -1.022502 2.3958375
-0.16219711 -1.1205235 2.2487278
1.2214723 -0.2962799 1.4524384
0.9755697 -0.08389473 3.263186
-0.12140274 -0.6277399 1.4838645
1.5456347 -0.041895866 2.674057
0.8319454 -0.2569971 1.6698128
0.59134007 0.19402313 1.4498432
1.7276926 0.330925 2.403464
1.4981751 0.20619869 1.7217453
0.6739187 -0.38062668 1.7067606
0.77729607 -0.38185692 2.9393246
0.7205534 0.2979803 1.653091
0.6448612 -0.66647625 2.7124507
1.3412905 0.85792065 2.861454
1.2935753 0.12241173 2.3131878
1.240737 0.044620514 2.2560024
0.5871315 0.34292984 3.9392056
1.2419214 0.14985847 2.0853443
1.0103569 1.0220995 3.230876
0.5708132 -1.1812534 2.5445943
1.0497284 -0.38012028 1.949128
0.8422003 0.1862545 1.6695395
1.1079922 0.80995274 2.715547
1.2361736 0.9932842 2.9296613
0.870348 0.57892513 3.0915132
1.0512543 -0.4546852 1.8043022
1.3217773 0.5340195 2.872991
0.3211956 -0.0759325 3.2507474
0.96471024 -0.34701824 2.72258
0.26081467 -0.3939619 3.4524229
0.41267967 -0.69750595 2.676139
0.90919113 -0.02784872 3.168243
0.517786 -0.21766382 1.4675666
0.2012806 -0.49149495 3.1482894
0.61335564 -0.030560136 1.5250952
0.26768875 -0.07799506 1.3319428
0.6707926 0.0707531 1.5631231
0.43040466 -0.29211545 3.2547045
0.32460403 -0.55479264 1.4358199
0.3963108 0.23202324 2.651487
0.5688534 -0.6281159 1.771614
0.61390877 1.0039988 2.2930357
0.26429176 0.26156425 3.9840434
0.5642147 -0.5469613 3.3499746
0.42412186 -0.6199031 1.6710997
0.22405243 0.35721302 3.378921
0.03042984 -0.33465242 1.1978464
0.030548096 -0.3345952 1.1899168
0.45729446 -0.12215185 3.382184
0.32443714 -0.44901943 1.3146658
-0.9715967 0.4934101 1.3209455
0.42627144 0.5215597 1.6434839
0.99423695 0.279871 1.7161605
-1.2062311 0.46236038 2.018638
0.16335964 0.7585106 1.6504968
-0.9765892 0.746748 1.0374272
1.3821349 -0.4203663 2.7528183
0.07027483 -0.47420883 0.75776064
-1.1237617 0.66841125 1.6840342
-0.89649534 0.42645836 3.2643833
-1.0981889 0.65354156 1.7147344
1.212199 0.3434124 1.7705345
0.8188062 0.46024704 1.769424
-1.1032186 0.74518585 2.1009562
0.37525964 -0.6126404 1.3473002
1.5686998 0.37217712 1.898016
0.25446224 -0.12185478 3.621234
-0.03933382 0.4265213 1.5498867
-1.21979 -0.644228 2.9513857
0.93933105 0.6303539 2.1314747
-0.84197617 -0.51169014 3.4061816
0.6059842 0.33820343 1.4992781
-0.13501596 -0.5446186 0.5958274
-0.74417305 -0.64133835 3.3275027
0.40760517 0.7293663 2.9023728
0.49821758 -0.006881714 0.6357121
0.5908308 -0.12523842 3.3407245
0.08902168 0.50907326 1.4295894
-0.44077206 -0.7442169 1.1232481
0.38804626 -0.11765289 3.4267251
-0.999712 -1.2209282 2.4394062
0.0022125244 -0.5313263 0.9174135
-0.45602798 -0.8112526 1.167814
-0.7731228 -1.1908512 3.284409
0.7618847 0.47142982 3.0978203
-0.13830185 0.97438526 1.8794932
0.25172234 1.1075754 1.7316036
0.16976166 0.70412445 3.1074443
-0.24014854 -1.3029776 3.5448914
0.7568722 0.5603924 3.1406317
-0.2744274 0.90224075 2.5919275
-0.008804321 0.9246149 1.8925934
-0.47491837 -0.72929764 2.6248646
0.09658432 -1.0068617 4.38377
-0.95241165 -0.8019142 2.4171066
-0.42233467 -0.8686333 2.780077
0.2910099 1.1957135 2.2808418
0.41119576 -0.0044574738 3.8838701
-0.66292953 -0.6571176 2.603816
-0.17107773 -0.59213805 1.3672161
-0.5456295 -0.38121462 2.7750063
0.030162811 -1.2215941 3.1306052
-0.14631653 -1.4682236 2.5527725
0.36614418 -0.3957457 3.7627788
-0.0166111 -1.4152414 3.4881582
0.4564705 -1.0338936 2.9351773
-0.3060112 -0.78281784 1.782475
-0.17274284 -0.056030273 3.1020179
-0.45121574 0.21289635 3.1027899
0.7246113 -0.599555 2.8703475
0.56275177 -0.5962014 3.042852
-0.2365799 -0.15557003 1.3845859
0.71993065 0.21558094 3.16757
-0.42615128 -0.10974693 3.031291
-0.30339622 -0.87474155 1.7707014
-0.43364334 -0.7217388 1.7148533
-0.09933472 0.057424545 3.1432838
0.07139206 -0.97014046 1.3792467
0.48797607 -0.048312187 3.3752794
-0.06011963 -0.6605654 2.7631292
-0.89219666 0.29207802 2.6188235
1.255827 -1.1107893 1.8249016
0.2999401 -1.1295967 2.6200361
0.7209339 -0.37532616 3.0095248
-0.23118782 -1.0800486 2.0612516
0.6634302 -1.0729017 2.8292942
-0.24597073 -0.46608543 2.8613224
-0.44375515 -0.9868393 1.9751472
-0.26826763 -1.0286083 2.399952
-0.037127495 -0.72729397 2.7322607
0.5815973 -1.292079 2.159874
-0.37414265 -0.98222256 2.8061638
0.69218826 -0.5051069 2.7410955
-0.4083891 -0.31017876 3.069189
0.83800507 -0.03557396 3.0108213
0.021018982 -0.5740719 2.7531395
0.25889492 -0.07084656 3.21342
-0.0021390915 -0.5013313 2.8590813
0.20281029 -0.40999222 2.9064636
0.41355038 -0.24237633 3.0737762
-0.36902428 -1.250988 2.834967
0.2903099 -1.2473774 2.580813
-0.21131897 -1.088109 2.249258
-0.07015991 -1.1111784 2.477684
-0.034938335 -1.1356916 2.1499991
0.1954217 -1.1572666 1.9707465
0.15968466 -1.22157 1.65743
0.80404747 -0.21969318 1.496624
1.0822331 -0.38450527 1.8488817
0.6179018 -0.48510933 1.603585
1.5933036 0.19243622 1.7076659
1.6661615 0.3171606 1.9394706
0.7114997 -0.4391632 2.9872952
0.65605736 0.093455315 1.1466849
0.63413334 0.1933546 1.4700994
-0.033572197 -0.9336338 1.8396482
1.6064358 0.3177719 2.5244339
0.5899687 0.15964508 3.402662
-0.050890923 -1.0006342 2.282734
0.884717 0.351161 1.6693847
0.2297163 -1.1130075 2.1833916
0.61578083 -0.14154911 1.5096555
0.35064983 -0.8779659 1.629139
0.78539085 -0.8293705 1.9356048
1.1457224 0.2859764 2.0703764
0.91014767 -0.64031506 1.7607036
0.85837936 0.35246468 3.2859066
0.25197792 -0.43026447 3.0810149
0.63806343 0.15114689 1.47169
1.5016031 0.6038265 3.4640794
0.6755676 -0.31511974 1.5793054
1.060175 -0.21755886 1.7109425
