ply
format ascii 1.0
element vertex 138
property float x
property float y
property float z
end_header
0.17310846 -1.1244098 2.1501355
0.17310846 -1.1244098 2.1501355
0.17310846 -1.1244098 2.1501355
0.17310846 -1.1244098 2.1501355
0.17310846 -1.1244098 2.1501355
1.157566 -0.42036274 2.0376422
1.3861308 0.45690563 1.9817533
0.3279787 -0.82741624 1.4084463
0.30327165 0.4475522 1.3887146
-0.23236783 -0.4638904 1.1381958
0.5056937 0.75069606 2.8689938
1.2338873 0.4125327 1.9401319
0.5654682 -0.05446536 3.8483505
1.4765345 0.37881786 2.2491236
-0.38524824 0.8507184 2.6048942
-1.1713225 0.5700384 1.8416474
-0.10873024 -0.9698909 1.5039364
-0.7898153 0.40760493 1.9220555
-0.6701751 -0.8735119 1.9766514
-0.49800748 -1.2659183 2.7729144
-0.5662404 -1.0179213 2.1410923
0.86342406 -0.75675446 1.8430092
0.63836145 0.4737676 3.2351851
0.3567911 -0.21446519 3.5104191
1.6687942 -0.46849543 2.8180087
1.4180477 0.22580767 3.229132
0.26372844 -0.4849499 0.8395655
1.1420923 0.47020826 2.6269593
0.76888704 0.5646857 3.8191442
-0.97259176 -0.57276005 2.205384
-1.0175169 -0.46550113 2.181725
-0.3018874 -0.99472505 1.9158467
-0.25323611 -1.0331377 2.739571
1.0429605 -1.013021 2.3498569
0.76132166 0.026952857 1.1455462
0.29706165 -0.9105834 1.3641553
1.3873047 0.45535555 1.938598
0.348342 -0.1829475 3.7391484
0.43413168 -0.30890778 1.4962277
0.59210116 0.7943565 2.8178926
0.23839803 -0.15670878 3.4170425
-0.04380732 1.0816734 2.3804786
-0.3098519 -0.30255198 3.8663797
-0.18615045 -0.4802827 1.2128893
-0.36055773 0.7275378 1.6406249
0.18736367 0.9215407 2.8295748
0.548256 -0.3869108 3.1091833
-0.97547257 -0.22519685 2.2329335
0.61717445 -1.0315129 1.8736407
-9.10499 -17.568432 10.114347
-0.29392806 -1.1722413 2.9003477
0.0579326 -0.4730136 3.0204887
0.7486221 -1.0073259 2.26846
1.1268269 0.9033794 3.622415
0.6221169 -0.46463114 1.5560665
0.6417646 0.88565207 2.9977984
0.6352839 0.31750837 1.5656941
0.6499807 0.834752 2.0075665
-0.9021483 0.4604957 3.0446393
-1.0683069 0.76277095 1.6437418
0.6408706 0.98629785 2.5347261
1.2023398 -0.085495114 0.9808582
0.08400645 0.9685502 1.7791115
-0.7939634 -0.8964882 1.0050769
0.59440845 0.21381642 3.2108033
-0.50699663 0.87225425 2.4692545
-1.0467919 0.4533939 1.7720324
-0.83625823 0.51371646 2.501275
-0.4539541 -0.4975771 2.5903509
-0.8375854 -0.74700105 2.152562
0.93348545 -0.16379398 3.2971807
0.14736697 -0.7491291 2.8375416
0.2053632 -0.7684917 2.874686
-0.41104206 -1.3086627 2.8026142
0.27040735 -0.99195546 1.2575171
1.6852835 0.43079713 2.5626106
0.45096982 -0.20961505 1.4130666
0.42448002 -0.45800266 1.4752845
0.39935872 0.0942954 3.3959458
0.2918677 0.5342046 1.4993547
0.4040267 0.88020796 2.128748
2.147922 0.31636184 2.276565
0.34016457 0.93484557 1.6219418
-0.4551702 -0.9124674 3.8298402
0.32761648 0.72278166 1.323779
-0.81101793 0.26087597 1.8869066
1.4871653 -0.80865574 2.0538106
-0.32612675 -0.4159961 2.8294878
0.31106433 -0.45214042 2.9317675
-0.08927122 -0.50865114 2.7529278
-0.109058626 -0.46268114 2.9408014
-0.14663063 -1.0697391 1.4835227
0.47737303 -1.0192193 2.5770583
-0.32545677 -0.9197554 2.5151708
0.37452936 -0.09014104 3.7269626
0.87945145 -0.25106966 2.783712
0.57658404 -1.1567391 1.8625995
0.8599137 -0.9880848 1.7578546
0.20262511 -0.49889812 3.3244536
0.37511638 -0.32673162 1.4151909
0.6679487 0.09892225 1.5493231
0.4316984 -0.5867392 1.0911303
0.63028 0.16753349 3.147397
0.4765608 0.056100722 3.2463508
-1.4507393 1.0420905 2.6323051
-0.4743737 0.45775598 1.2389456
0.009377556 0.5784024 1.4401121
0.7003639 0.8000974 2.2748284
-0.56757605 0.7427145 2.6233644
-0.48191386 -0.8609226 1.43176
-0.032944873 0.44818902 1.4318461
-0.22112066 0.9344174 2.062394
-0.6612532 0.0011989442 2.8993874
0.27748287 -0.26697144 3.370022
-0.6539841 -0.89690894 2.0986502
1.8143412 0.49089596 2.6118414
-0.15588054 -0.33253577 3.0112896
0.5311899 -1.2422879 2.1907349
0.96516854 0.24558061 1.2879055
1.2915552 -0.55094576 2.262367
0.86326706 -0.4646513 2.8563526
1.1675669 -0.16731945 1.822692
0.43118423 -0.19141406 3.3699014
-0.13523489 0.19512095 0.9036418
-0.72587395 0.34557417 3.776995
-0.9578096 0.024610294 3.580976
-0.57512003 0.7612179 2.2520382
0.58153164 0.093489766 3.563818
0.4416231 -1.0709298 2.0565264
0.64203125 -0.5612147 2.7167327
-0.16001464 -1.2008063 2.2598274
-0.47938022 -0.9569468 1.8818536
0.8299407 -0.39377704 1.7441529
0.8292834 -1.021338 2.1940813
1.5297565 0.3682431 1.7990397
1.2639208 -0.055018567 1.817858
0.68103766 0.81510204 1.8626668
0.31693703 -0.43815577 1.1707394
0.57621956 0.01728646 3.518067