ply
format ascii 1.0
element vertex 497
property float x
property float y
property float z
end_header
0.68150926 0.81039304 2.2081883
0.44836062 0.4889399 1.5605386
0.43063295 -0.62710273 1.415749
0.5309665 0.019946808 1.4358603
0.9090557 0.41981995 3.0481455
0.780531 0.68439007 1.8152032
-0.459838 -0.01779648 3.2306304
1.7913327 0.5200379 1.9755735
-0.25140312 -0.49503434 0.6213184
0.42655572 -0.62454206 1.1324811
-1.0270977 0.6878932 3.3004017
-0.409022 0.47084686 0.7408202
0.83336794 0.49470314 1.7466675
0.95282024 0.81867737 2.403508
0.34355444 1.0803254 2.0214326
0.016726412 -0.45386672 0.74841654
0.1953929 -0.035324894 3.371984
-1.4913915 0.8395802 2.157028
1.1236825 0.54386157 2.452487
1.2273486 0.43416566 2.285755
0.549025 0.97068393 2.0734801
-0.15525636 -0.029979784 3.5328343
0.30563524 -0.5503239 0.61820614
1.6745527 0.37401238 2.3668127
0.020261455 -0.13499135 3.4566236
1.4385593 0.06298502 2.663353
0.780035 0.673596 1.8846656
-1.0544779 -0.3879157 1.256715
0.7505683 0.7733691 1.9973323
0.27274182 1.0467298 2.5548449
-0.9475328 0.53776914 1.7638513
-0.38534912 0.7565964 2.8105876
1.3442451 0.34310406 3.2502704
-0.31084743 -0.6170619 1.3230737
0.8442313 0.25681904 3.1840987
-0.72485876 0.6878658 2.1635804
1.2180064 0.47398987 2.8124022
-0.8725495 0.4974371 1.8475034
0.7458621 0.7997927 2.3246498
0.20526479 -0.27705476 4.0959187
-0.2008632 0.8336862 2.7625673
0.8981346 0.09546601 3.7032945
0.72227484 0.8968732 2.0520787
0.32994974 -0.6292707 0.70240664
-1.3072147 -1.4012026 1.3210951
0.9635791 0.5612093 2.8484914
0.11157398 0.96228844 2.673737
-0.40122986 0.82898307 2.0888016
-0.3410338 -0.9414698 3.2372475
0.8385297 0.6797654 1.5880549
0.7306137 0.8438604 2.0605242
-0.9117517 0.55731493 1.7521833
-1.0799116 0.6269708 2.1690395
0.6564921 0.048585728 3.4964843
-0.2904344 0.9160281 1.9953624
-0.27428484 0.750579 2.810139
-0.40644497 0.9171554 2.5550017
0.52917194 -0.20607442 4.155745
0.82436246 0.82017416 3.2039964
-0.8505249 0.5269144 2.6451433
-0.07584349 -1.1810608 4.242143
0.5387582 0.017026681 4.174188
-0.41509938 0.77460146 2.867467
0.046046723 -0.08823105 3.1574001
-0.90029925 0.0045156106 1.9520302
-0.55047303 -0.09990451 3.0170271
0.0041211806 -1.083572 3.533669
-0.5448196 -0.026843036 3.1191514
-0.45663336 0.23087311 3.0850303
-0.26679313 -0.48271734 1.100222
-0.20885658 -0.429049 1.3671682
-0.22739208 -0.31386167 1.4120362
-0.643116 0.45533937 2.8870614
-0.7857018 0.5962374 2.5380933
-0.15334922 -0.40944943 1.1922876
-0.80546314 0.5208995 2.7162151
-0.21025051 -0.3308019 1.4754584
-0.29371354 -0.9344809 1.1315155
-1.0809445 0.4906311 2.261667
-0.8299776 0.12565479 1.8795725
-0.93122977 -0.35972914 2.1563792
-0.26266432 -0.49160767 2.8795273
-0.9666643 0.13241078 2.6564562
1.045461 -1.0468204 1.9125769
-0.83454907 -0.1846199 2.5330493
-0.08039028 -0.2862627 3.0644302
1.2999371 -1.136816 2.0498471
-0.89897454 -0.22899657 2.066339
0.11619952 0.095032126 3.1290307
-0.58427846 -0.3698214 2.799924
-0.94330055 0.05461514 2.2824836
0.6371992 -0.13707416 3.5429208
-0.9202163 -0.79059595 2.26025
-0.74353766 -0.27692297 2.5544689
0.64856976 -0.44519472 2.8846242
0.29127875 -0.42460543 3.0959392
0.43583396 -0.68411404 2.563468
-0.12920558 -0.39160123 2.7503412
-9.106007 -17.570065 10.115094
-0.13851705 -1.2157056 2.8815198
-0.4563846 -1.2975366 2.7057097
-0.67665535 -1.2662727 2.5996091
-0.5821109 -1.2679626 2.6475408
-0.18650474 -1.2126665 2.2031026
0.3604104 -1.1716546 2.323107
0.11502055 -1.2844676 2.4796169
-0.34387136 -1.2237555 2.3764317
-0.4748077 -1.2107882 2.4292626
-0.35570875 -0.823578 1.7216152
-0.17673595 -1.1033447 1.9881719
0.28031427 -0.6983458 2.8831673
-0.43372792 -1.0817629 2.0657146
0.077683076 -1.1986997 2.1685998
-0.13460357 -1.2187303 2.4853451
0.312436 -1.1722893 1.9957169
0.78899 -1.1131158 1.9375486
0.40664858 -1.2650079 2.208831
0.19339943 -1.107965 1.8544302
0.40024906 -1.1288661 2.384679
0.50667906 -0.8450803 1.0682706
0.9890856 -1.0177178 2.280634
0.77947503 -0.91488403 1.8157458
0.9313176 0.009515697 3.1501417
0.5921129 -1.0127671 1.8686457
-0.3596785 -0.88786083 1.7518088
1.7026536 0.4099915 2.0681474
1.575554 0.2988845 2.3141978
-0.012607366 -0.97014165 1.948322
0.9528802 0.042468406 3.0813224
-0.26801863 -0.9143492 2.154985
0.4199854 -0.7619262 1.700356
0.9065499 0.24422091 1.5827434
0.27856478 -1.010101 1.7434816
0.6234021 -1.0554621 2.2044559
0.34173742 -0.89254785 1.111499
1.1826066 0.054232113 1.84967
0.79823166 -0.60973096 1.7489673
-0.28021324 -0.9938931 2.3188043
-0.18608744 -0.9279041 2.31274
0.0576172 -0.9933469 2.1913664
0.46178102 -0.13029455 1.4286996
0.27532667 -1.0908945 2.4468558
1.008281 -0.8686363 1.989964
1.3955902 0.25171667 2.355639
1.3818825 0.17501265 2.2916718
0.52918595 -0.8579877 1.4712883
1.0086136 0.60627854 1.4764905
0.9353712 0.36109602 3.7425125
0.56627184 -0.7321694 1.6184195
0.3200705 0.17454168 3.267844
0.17426574 -0.61643416 3.1776323
0.9459563 -1.1038151 2.1985319
0.31976166 -0.041311372 1.1902233
0.5840268 -0.08353921 1.4041243
0.8067744 -0.5256972 2.8110101
1.3576884 -0.29040226 2.355753
1.1800748 -0.48822063 1.8753607
1.0248212 -0.31957367 2.8169928
0.70679396 -0.022190241 1.6206167
0.48288006 -0.0028825523 3.52254
0.20424542 -0.8281506 1.5351653
0.3213156 0.29666576 3.2130136
0.40607387 0.068190105 1.1728296
1.0987198 -0.07356362 1.8828727
0.5834811 0.28486603 1.4588554
0.4437035 -1.001092 2.9479697
0.69657207 0.80125695 2.2170508
0.27946255 0.941606 2.5881643
0.42374206 -0.50516963 1.2180336
0.48123246 -0.5248356 1.2393193
0.51634604 0.93811315 2.4932032
-0.57532406 0.38109982 3.3300614
-0.030655887 -0.45487565 1.1547499
1.0926285 0.61418 2.4040263
0.42510524 0.79511225 1.7817196
1.1579041 0.5755036 2.580637
0.870218 0.36292753 1.7447803
-0.14560322 0.17279696 0.96826595
0.6666955 0.5699767 3.0064328
0.5637977 1.0431671 2.6086879
-0.9606295 0.65703005 3.1345332
0.0331347 0.6438602 3.1274202
-0.6278157 0.71169233 2.8549342
-1.295448 0.86891574 2.3541534
0.7941434 0.9412105 2.561562
0.2429369 1.1104901 1.9202039
0.9463334 0.7698797 2.3727715
0.09691632 -0.16324832 0.5110839
-0.83831906 0.49984398 1.6889312
-1.187582 0.06922367 1.1292833
-0.15163834 0.44708726 1.494518
-0.65862936 0.7781839 2.3024092
-0.15432966 0.9109843 1.8892744
-0.86760926 0.6470471 2.1984367
-0.099286415 -0.52901536 0.8205576
-1.0817039 -0.5986343 3.0896857
-0.7751576 0.65831214 2.164171
-0.25672957 -0.5173902 1.0735412
-0.82555735 -0.8454145 3.7749383
-0.8159174 -0.84400946 3.7240555
0.06513741 0.93651646 1.7044405
-0.61812997 0.731292 2.5523417
-0.20006563 -0.12584408 1.411626
0.6837006 0.89540565 1.949322
-0.97471833 0.61606413 1.9518948
0.019498555 0.7321652 1.6338776
1.4872761 0.7231066 2.7443128
0.5103992 1.0355207 2.244564
-0.7696856 0.48644522 1.7245836
-0.29046285 -0.7839278 3.672259
0.11261065 1.079247 2.5795295
-0.25563315 -1.0043073 1.3633331
-0.21727556 0.85289586 2.7146573
0.3174493 -0.40475908 3.5142627
0.8266671 -0.084538415 3.199604
0.9312472 0.48279524 3.0442429
0.503314 -1.1294754 2.9732904
-0.42227763 0.8100373 1.791436
-0.7470342 -0.5025914 2.4643316
0.034710392 -0.5544494 0.9649234
0.1250122 0.93820554 2.827339
-0.9567348 -0.4665115 2.3331294
0.4969922 0.4768488 3.3635674
-0.9677725 0.21030758 2.553142
-0.9690903 -0.09889726 2.044771
-0.26567602 -0.16807207 1.3579544
-0.3075832 -0.78684443 1.461597
0.20662731 1.1475749 2.7555447
-0.54262775 0.13536593 3.091074
0.156017 0.9187708 2.8964112
-0.9414424 0.1468733 2.1314356
0.5277605 -1.3967339 2.936767
-1.0329092 -0.6922088 2.423733
0.5384857 -0.32918507 3.0869443
-0.93934673 -0.6341571 2.0631247
-0.55162036 0.3465613 2.973798
-0.6509824 -0.90585613 2.0502653
-0.91141903 -0.38701755 2.2118635
-0.44358155 0.40489203 3.0455534
-0.9590108 -0.24753472 2.2318285
0.7032747 -0.49240795 2.93655
0.86514425 -0.7273319 3.092686
-0.5641842 -0.075081356 2.954065
-0.17228955 -0.366277 1.4610128
0.507972 -1.097239 1.9300765
0.70937073 -0.23735449 3.6214504
-0.93436354 0.37239403 2.336133
1.1859481 -0.88284427 1.7314745
-0.34468985 -0.8122424 2.70888
-0.54523295 -0.7515247 1.7746125
-0.0012414746 -0.26466963 3.0789032
-0.1692106 -0.9905703 1.921967
0.36004442 -0.04169648 3.1240454
0.6972294 -0.8687865 2.1385734
0.39292908 -0.60232484 2.3315358
0.3539048 -0.54651207 2.5538244
0.052165993 -0.46566138 2.9972355
0.4812033 -1.0143249 2.4147828
0.79589784 0.21312705 3.0962663
1.139967 -1.5375533 1.4783477
1.5381747 -0.70692194 2.9716794
0.6920684 -1.8419474 0.67838824
0.17229602 1.099929 3.4680026
1.2168018 -1.2153529 1.7803227
-0.6127851 1.243716 3.5349896
0.029074123 -1.2839894 2.4031045
-0.6005026 -1.1596223 2.5122397
0.30545568 -1.188865 2.3806043
-0.44806844 -1.1487322 2.9097135
0.3028798 -1.20998 2.5263577
0.27397442 -1.2536135 2.7200973
1.0526069 -0.39558038 4.2836556
-0.6587305 -0.85260755 1.9361367
0.5481186 -1.165239 2.71771
-0.78008795 0.13075216 0.8952567
-0.319378 -1.1328654 1.9647076
-1.2325819 0.84917724 1.7009616
-0.5599935 -1.1632679 2.326694
-0.004738514 -1.1197513 2.0928545
0.968017 -0.9718957 2.028308
0.51568455 -1.0881848 1.8805498
-0.16833073 -1.1005962 1.9183288
-0.32851917 -0.99718016 0.82287
0.7645898 -1.0880668 1.9154986
0.54418576 -1.1838713 2.5382838
-0.12277845 -1.0745841 1.7212524
0.8369689 -1.095966 2.046935
0.22472714 -1.1090271 2.3017073
0.4355808 -1.0516928 1.8859081
0.45276305 -0.8467419 1.6111728
0.5132501 -1.0306001 1.8109987
-0.051141836 -1.0443574 1.6326064
1.0439053 0.05014988 1.3343117
0.81868464 -0.425718 1.7024628
0.59711444 -0.9542567 1.8036395
0.5985263 0.003343869 3.3711083
0.41263708 -1.083767 2.0948124
0.6217772 -0.5375699 1.7017056
0.3416619 -0.91652954 1.0827862
0.8947844 -0.2987395 1.7595961
-8.931415E-4 -0.9867146 1.616036
0.8317528 -0.97046125 2.083683
0.13326845 -0.9511727 2.0702183
0.8239004 0.2719748 3.8217578
0.6045944 -1.0945184 2.0468926
0.23131667 -0.95141304 1.5498898
1.1048925 -0.86806804 2.1940277
0.54185015 -0.084536575 1.3565598
1.1753999 0.88914824 2.8869257
1.1332625 1.0484409 3.6284244
0.87225765 -1.0119858 2.057406
0.46999502 0.1275673 3.6378515
1.2047356 0.8099088 1.3491056
0.6896593 -0.5072678 2.8545537
1.1882081 -0.18360887 2.082447
0.78764707 -0.34505686 1.6869793
1.2156737 -0.3515721 2.0752273
0.6306581 -1.2476012 2.7308896
1.4575828 0.45257506 1.784859
0.5410696 -0.48538497 1.2990687
-0.09372796 -0.7295204 3.1482363
0.7389561 -1.2942916 2.2224803
0.97429895 -0.19516945 2.9509797
0.43784916 0.29861888 3.2797909
0.07409899 -0.9544036 3.0550995
0.45928776 -0.40882707 1.5108819
0.47869575 -0.010522192 3.2306378
0.9170693 -0.36054274 2.7871513
0.087459505 -0.21078244 1.2756577
0.9502445 -0.5858147 3.313519
0.51560616 0.050515816 3.1748228
1.198794 -0.03713035 2.675326
0.8108445 0.13694145 3.0497453
0.38197583 -0.90412337 2.8581948
-1.1009328 0.6799315 0.6506184
0.10411601 0.032341607 3.4170585
1.6044447 -0.5292857 3.4224653
-1.4215006 0.4887706 1.9127892
1.0646979 -0.37626487 3.6760921
0.7652644 -0.15158612 3.3968217
0.9747952 0.30259168 2.9584458
0.71836483 0.722517 1.8794641
-0.5581574 0.49521562 4.1456
-0.6881554 0.58881086 4.0047746
0.14626592 0.041557893 4.1587195
-0.8525388 0.8220915 1.6356475
-1.1181641 0.9708634 1.6454437
1.0730706 0.55428505 1.9434351
0.5440974 0.88311887 1.97409
-1.2664608 0.8562839 2.9118826
0.106065005 -0.49014345 0.8992944
1.8840008 0.46125525 1.9404967
0.03383767 0.64193994 3.1880844
-0.16540441 0.45263454 1.4609299
0.54714835 -0.7643099 1.1761702
-1.496475 0.88538456 2.0059178
-1.2860458 0.8383257 1.9552231
0.93867534 0.72383463 2.0645757
-1.3399284 0.84724057 2.4246137
-0.059786562 -0.5268135 0.72645044
-0.45022017 0.6573342 2.938319
1.5032891 0.32805318 2.3279836
-0.015617591 1.0412403 2.4568655
1.3202753 0.184676 3.3476338
-0.5389584 -0.3993788 3.980689
0.17113358 1.0361941 2.178182
-0.25560257 -0.2785286 4.144511
-0.36272407 -0.5723787 0.72553337
-0.59879404 0.75217617 2.5522451
-0.42273694 -0.7735451 1.0627857
1.5809524 0.43880746 2.0109918
0.5699577 0.9695458 2.2418158
-0.7751576 0.65831214 2.164171
-0.94159114 -0.9129409 3.7754521
-0.92951787 -0.86617404 1.1082971
0.044552185 -0.529534 3.9841094
-0.39382622 -0.69651693 3.8932114
-0.033090092 0.6839545 1.5832543
-0.08018544 0.915734 2.688764
0.15829642 0.869902 2.8399582
-0.15356992 0.63735527 1.5632862
0.28392333 -0.2704658 3.597457
-1.0531886 -1.3412404 1.7558851
0.12736207 0.9750521 2.7040968
0.12288893 0.9799531 2.6334758
0.73091376 0.86999595 2.2182696
0.95450556 0.41051605 3.310823
-0.4847775 0.8022296 2.5454314
1.0391992 0.44465 3.816597
-0.24232332 1.0190107 2.3996637
-0.90704995 -1.608679 3.2085884
1.2260768 0.82809716 3.1149416
-0.8218805 0.5566169 2.6491418
1.480645 0.4081566 1.7429446
0.67085886 0.028514344 4.0704412
1.0650873 1.0264056 3.0943213
0.54225135 -0.13087806 3.506819
-0.38484097 0.6585014 1.6636958
-0.6437905 0.9423895 2.496949
-0.43941492 0.9257131 2.3377662
-0.44443673 0.54944783 3.061536
0.15260597 0.8019708 2.9104476
0.7995716 0.59256625 3.9442532
-0.43175316 0.95119727 2.545993
-1.0080861 -0.71309924 2.3962288
0.7280798 0.41745013 3.2104657
-0.58698463 0.094134554 3.0010874
-0.9475304 -0.5322085 2.062367
-0.13358708 -1.665212 3.1034498
-0.6056557 0.12556106 2.9958708
-0.45860547 0.21152192 3.1661234
-0.29057023 -1.7238355 3.4068284
-0.23330124 -0.51022846 1.4012002
-0.082661234 -1.5262437 3.1594489
-0.18253222 -1.0271369 1.3903539
0.44827014 -1.0541515 2.9180424
-0.32436204 -0.7782705 1.3416502
-0.98910683 0.17574371 2.2978394
-0.38088363 -0.30154783 3.0020509
-1.1004609 0.492882 1.7729948
0.051410154 -1.0858302 1.1884285
0.48620155 -0.91746897 3.20644
-1.0539691 -0.6033958 2.2583659
-0.8825425 0.4181764 1.961277
-0.25409585 -0.68511033 1.321249
-0.2376956 -0.12952669 3.1261075
0.026861887 0.8892815 2.8625002
-0.9810999 -0.16272187 2.2195494
-0.95233464 0.25914088 2.6096241
-0.24334486 -0.7198494 1.3578385
0.6017343 -0.28112066 3.3827953
-0.15646337 -0.3172171 1.3015388
0.98862004 -0.5577367 3.013651
0.07467542 -0.5276099 2.971208
-0.9573885 0.010177687 2.3381162
1.3768367 -0.859573 2.0238247
-0.18718937 -0.550641 2.7486882
-0.5760908 0.29544577 2.9722905
-0.14663696 -0.17894262 3.1621788
-0.06965146 -0.22439098 3.1094081
0.77836514 -0.0671011 3.091188
0.5018394 -1.099079 2.4357448
0.32311636 0.38082334 3.1463714
0.44451523 -1.1196772 1.8424388
0.21358557 -0.37632272 3.0983644
-0.4147125 -1.0485238 2.3625138
-0.42334694 -1.0452927 2.5723095
-9.107255 -17.571817 10.115953
0.18333168 0.7429781 3.1474092
-1.6082677 -0.090481184 1.7228957
1.9333999 -0.5108566 2.765352
1.3012387 0.74037534 3.7993553
0.50047904 1.1858146 3.9607081
-1.4076941 0.38553643 2.5839446
-0.97610015 -1.3308014 0.97595686
0.562834 -0.9883248 1.7661471
1.9917126 -0.37246564 3.6988332
0.07253359 0.8398887 3.2722483
0.8274319 -0.05888632 3.243127
-0.4240865 -1.4830886 2.8403547
0.02131461 -1.2159603 2.481773
1.267132 -0.94668823 2.6161604
0.11005904 -0.7191287 2.9851248
-0.10421879 -1.2342464 1.9686078
0.088413335 -1.191636 2.5063028
-0.17436133 -1.2384864 2.4900475
0.06310271 -0.6217988 2.9884565
-0.41413713 -1.2099743 2.3967233
-0.18090498 -1.2169292 2.685525
0.3081279 -1.3335038 2.7617903
0.3339097 -1.1464785 2.0786424
-0.5916771 -1.157659 2.1110632
-0.26158792 -0.6071581 1.5512129
-0.43250847 -1.0812783 1.9545093
0.28448 -1.2211555 2.169268
-0.6024124 -0.949155 1.9451395
-0.044795368 -1.0572115 2.0718198
0.60358 -1.1915693 2.5559716
1.1152844 0.1402216 1.6866891
1.1906354 -0.9792843 2.3681717
1.7970433 0.34538746 2.4531078
0.13903856 -1.1163311 2.1174407
-0.2793728 -1.1005259 2.6955094
-0.09238505 -1.0103979 2.0356798
1.5006812 0.30301762 2.0865903
-0.5311034 -0.8009167 1.9935336
0.24881291 -1.0115528 0.76733375
0.03613782 -1.0252647 2.1656284
0.38232756 -1.0711565 2.3812041
0.29753733 -1.0796604 1.7449937
1.4156045 -0.04314518 3.02042
0.36934876 -1.0625277 1.6976795
0.17372489 -1.1131516 1.8738256
1.0805385 -1.0007277 2.1533227
-0.52377033 -0.79157543 1.8970866
-0.4124949 -0.61644745 1.6664472
-0.28093815 -0.9865618 2.3221083
1.4688351 0.18367386 1.865406